# .PCD v0.7 - Point Cloud Data file format
VERSION 0.7
FIELDS x y z rgb
SIZE 4 4 4 4
TYPE F F F F
COUNT 1 1 1 1
WIDTH 1000
HEIGHT 1
VIEWPOINT 0 0 0 1 0 0 0
POINTS 1000
DATA ascii
0.53538573 -0.19205263 0.64773649 1.1155677e-38
0.53614932 -0.18792033 0.64738488 3.9655738e-39
0.53727412 -0.18239568 0.64806151 2.9517932e-39
0.53888679 -0.17759188 0.64715618 2.9517932e-39
0.5409022 -0.17240924 0.64772516 2.9517932e-39
0.54280919 -0.16730523 0.64755225 2.9517932e-39
0.54433602 -0.16349232 0.64768785 2.9517932e-39
0.54530197 -0.16121638 0.64770353 2.9517932e-39
0.54579061 -0.15995808 0.64567703 2.9514344e-39
0.52964169 -0.080749497 0.64800727 9.0005989e-39
0.53279907 -0.083258867 0.64669251 9.0931547e-39
0.53543007 -0.084453061 0.64794588 9.1860706e-39
0.52436751 -0.075687662 0.64605343 8.8180083e-39
0.52718776 -0.078305051 0.64608377 8.9098438e-39
0.51825297 -0.070297584 0.64810157 8.8169279e-39
0.52144068 -0.073061094 0.64619887 8.8176482e-39
0.51385111 -0.065264523 0.64773268 8.8165678e-39
0.51600802 -0.067817889 0.64729452 8.7250924e-39
0.50967497 -0.060298644 0.64707196 8.8165678e-39
0.51150936 -0.062489409 0.64754444 8.8165678e-39
0.50495464 -0.055105127 0.64999855 8.8162076e-39
0.50711495 -0.05700931 0.64677912 8.8162076e-39
0.50363314 -0.053507306 0.64924723 8.8162076e-39
0.49985057 -0.047043495 0.64947033 8.8169279e-39
0.4978627 -0.041796129 0.64883131 9.4738216e-39
0.4983263 -0.037741099 0.64767289 9.4666189e-39
0.50030178 -0.03623686 0.64879054 9.1835496e-39
0.49988145 -0.03475859 0.64668894 9.1835496e-39
0.50275892 -0.032508492 0.64782763 9.0917141e-39
0.50535333 -0.030224711 0.64940459 9.0917141e-39
0.50734866 -0.027467621 0.64799261 7.1631687e-39
0.51239085 -0.022726931 0.64851803 6.8876622e-39
0.51725745 -0.018455859 0.64702779 5.9693073e-39
0.52102673 -0.015201617 0.64679646 7.6223462e-39
0.52372348 -0.012900464 0.64698124 4.7754458e-39
0.52628672 -0.010581376 0.64737278 8.5407011e-39
0.52882302 -0.0082505308 0.6478194 8.7243721e-39
0.53136754 -0.0059123263 0.64826721 8.8162076e-39
0.5336349 -0.0038346269 0.64822024 8.8162076e-39
0.53657955 -0.0012384541 0.6476841 8.8162076e-39
0.53831172 0.00033771805 0.64796197 8.8162076e-39
0.54099768 0.00268665 0.64691603 8.8162076e-39
0.54360998 0.0050694244 0.64734197 8.7243721e-39
0.54711604 0.0082618808 0.64790452 8.7243721e-39
0.55201483 0.012670551 0.64793926 8.8162076e-39
0.55837095 0.018246515 0.6468665 8.8162076e-39
0.56261581 0.022000562 0.64708877 8.8162076e-39
0.56538093 0.024461977 0.64743459 8.8162076e-39
0.56812024 0.026933925 0.64783216 8.7243721e-39
0.5708586 0.029414192 0.64824462 8.8162076e-39
0.57370996 0.031916767 0.64718574 8.8162076e-39
0.57648897 0.034419395 0.647578 8.8162076e-39
0.5784111 0.036095161 0.64775854 8.8162076e-39
0.58130533 0.038618293 0.64803004 8.8162076e-39
0.58421057 0.04115095 0.64830244 8.8162076e-39
0.58713281 0.043695726 0.64857203 8.7243721e-39
0.59008473 0.046250954 0.64881903 8.8162076e-39
0.46258682 0.19446191 0.6460129 7.0119336e-39
0.45418376 0.19916788 0.64596665 6.1821757e-39
0.45745254 0.19741195 0.64611578 6.1821757e-39
0.460347 0.19569516 0.64551413 6.458764e-39
0.4490954 0.20371075 0.64751756 6.1821757e-39
0.45108184 0.20119119 0.64743644 6.1821757e-39
0.44662714 0.20738961 0.64749801 6.1821757e-39
0.45734203 0.20798278 0.64739728 1.0694693e-38
0.44303006 0.2125624 0.64745951 6.1821757e-39
0.43884075 0.21857361 0.64773464 6.1821757e-39
0.44069549 0.21594149 0.64781314 6.1821757e-39
0.43487018 0.22392243 0.64665055 6.1821757e-39
0.43615469 0.22226393 0.64769977 6.1821757e-39
0.43262345 0.22698024 0.64776039 6.1821757e-39
0.42904642 0.23301868 0.64699638 6.1821757e-39
0.43033835 0.2306509 0.64801264 6.1821757e-39
0.42760363 0.2370958 0.64870471 6.1821757e-39
0.43217054 0.23718551 0.64686263 1.0694693e-38
0.4288241 0.24272551 0.64691949 6.181817e-39
0.43127155 0.24682769 0.64589804 6.5469743e-39
0.43386742 0.25035498 0.6455791 6.8228353e-39
0.43539298 0.25183719 0.64714611 6.5466072e-39
0.51854008 -0.32657954 0.65355247 2.675565e-39
0.5200876 -0.32613814 0.65491402 3.5975437e-39
0.51802284 -0.3224349 0.65208614 3.5053467e-39
0.52045172 -0.32245636 0.65439141 3.5975437e-39
0.51870948 -0.31722233 0.65150833 3.5975437e-39
0.52152556 -0.31731185 0.65419632 3.5975437e-39
0.51914579 -0.31278977 0.65087724 3.5975437e-39
0.52133292 -0.31281582 0.6531263 3.3209498e-39
0.51945078 -0.30983973 0.65043616 2.9517932e-39
0.52161831 -0.30776522 0.65247059 3.4127867e-39
0.52217549 -0.30269876 0.65251416 3.1361914e-39
0.52326494 -0.29726073 0.65203905 2.9521547e-39
0.52410877 -0.29264992 0.65299934 2.9517932e-39
0.52461898 -0.28745103 0.65265572 2.9517932e-39
0.52479696 -0.28352407 0.65086079 2.9517932e-39
0.52528089 -0.28174525 0.65286559 2.9517932e-39
0.5256654 -0.27797911 0.65265363 3.5049599e-39
0.52622044 -0.27271366 0.65268236 9.4043382e-39
0.52677739 -0.26751521 0.65227497 1.1708845e-38
0.52750403 -0.26258159 0.65273225 1.1155308e-38
0.52817446 -0.25777471 0.65279204 1.0786166e-38
0.52880275 -0.25256217 0.65190172 1.0509939e-38
0.52955562 -0.24786365 0.65295023 9.4025095e-39
0.53000766 -0.24520408 0.6542334 6.44972e-39
0.52984941 -0.24409519 0.65176791 9.9564022e-39
0.5302192 -0.24204502 0.65285945 8.2947172e-39
0.53064913 -0.23745501 0.6517911 1.0047879e-38
0.53129935 -0.23236139 0.65241086 8.9404468e-39
0.53185767 -0.22722161 0.65316236 8.9404482e-39
0.53213 -0.22216426 0.65258747 1.1339701e-38
0.53239852 -0.2175166 0.65220982 1.1801041e-38
0.53266716 -0.2128641 0.65183187 1.1801041e-38
0.53308016 -0.20775914 0.65232575 1.1708845e-38
0.53363138 -0.20246133 0.65316659 1.1801041e-38
0.534329 -0.19718413 0.65218878 1.1801041e-38
0.53483629 -0.19420749 0.65147763 1.1616651e-38
0.53528732 -0.19136153 0.65308696 6.915443e-39
0.5360502 -0.18744966 0.65227687 2.9517932e-39
0.53769195 -0.18250461 0.65286666 2.9517932e-39
0.53933829 -0.17779715 0.65236783 2.9517932e-39
0.54024571 -0.17566286 0.65334815 2.9517932e-39
0.54118943 -0.17274402 0.65248841 2.9517932e-39
0.54293972 -0.16783492 0.65192503 2.9517932e-39
0.54438525 -0.16364023 0.65233076 2.9517932e-39
0.54591501 -0.1606701 0.65224242 2.9517932e-39
0.54820251 -0.1592788 0.65313452 2.9517932e-39
0.53179741 -0.081435189 0.65171295 9.1835496e-39
0.53681111 -0.084289849 0.65140724 9.2782662e-39
0.52381432 -0.075957842 0.65226322 8.9998786e-39
0.52677363 -0.078196689 0.65208733 8.9080431e-39
0.51937735 -0.071684644 0.6518923 8.8162076e-39
0.52139843 -0.073861577 0.65302968 8.8162076e-39
0.51472652 -0.06661199 0.65188128 8.7243721e-39
0.51691234 -0.069070444 0.65275943 8.8162076e-39
0.51203072 -0.063546836 0.6525718 8.7243721e-39
0.50712341 -0.057882916 0.65275252 8.8162076e-39
0.50261033 -0.05249178 0.65213609 8.8162076e-39
0.49856868 -0.047741663 0.65411878 9.4734629e-39
0.49857017 -0.041954853 0.65275806 1.0224713e-38
0.49922615 -0.039206866 0.65041125 9.1842713e-39
0.50141704 -0.037481505 0.65178543 9.0917141e-39
0.50396413 -0.03349597 0.65147364 8.9998786e-39
0.50600672 -0.030662492 0.65205616 6.9794977e-39
0.4915818 -0.026559461 0.6538192 1.1152068e-38
0.50830775 -0.027100064 0.65271872 5.1427878e-39
0.51261997 -0.022555619 0.65360361 6.3366492e-39
0.51806962 -0.018086901 0.6524334 7.4386752e-39
0.52109939 -0.015559758 0.65256113 3.8570908e-39
0.52390814 -0.013053264 0.6512323 8.5407011e-39
0.52618837 -0.01097599 0.65247232 8.7243721e-39
0.52883476 -0.0083887447 0.65320224 8.8162076e-39
0.53100705 -0.0063347351 0.65282375 8.8162076e-39
0.53424519 -0.0032433849 0.65185875 8.8162076e-39
0.53641021 -0.0011581806 0.65196604 8.8162076e-39
0.53901625 0.0011993791 0.65236861 8.8162076e-39
0.54163027 0.0035647647 0.65277338 8.8162076e-39
0.54337871 0.005146917 0.65304422 8.7243721e-39
0.54654825 0.0080031119 0.6532523 8.7243721e-39
0.55268008 0.013421501 0.65187138 8.7243721e-39
0.55778474 0.017938312 0.65222013 8.8162076e-39
0.56238204 0.022000568 0.65276349 8.8162076e-39
0.56516171 0.024451032 0.65308255 8.8162076e-39
0.56760138 0.026640126 0.65297848 8.8162076e-39
0.57064503 0.029388942 0.65253961 8.8162076e-39
0.57343811 0.031882059 0.65155703 8.8162076e-39
0.57618463 0.034375362 0.65198517 8.8162076e-39
0.57079029 0.038656708 0.65141922 7.0828281e-39
0.57865435 0.036595758 0.65278715 8.8162076e-39
0.58125901 0.038842857 0.65209574 8.8162076e-39
0.58381575 0.041080613 0.6528101 8.8162076e-39
0.58675027 0.043616779 0.65305799 8.8162076e-39
0.58969629 0.046162754 0.65330648 8.8162076e-39
0.45866787 0.19424726 0.65381926 7.3789042e-39
0.46319577 0.1939078 0.6505686 9.7730997e-39
0.46584463 0.19413766 0.65179324 7.8366285e-39
0.45368731 0.1981495 0.65235895 6.1821757e-39
0.45636287 0.19543225 0.65346515 6.1821757e-39
0.44913757 0.2039942 0.65301567 6.1821757e-39
0.45088005 0.20133686 0.65287405 6.1821757e-39
0.44660825 0.20783131 0.65211302 6.1821757e-39
0.4429841 0.21302204 0.65268725 6.1821757e-39
0.4450143 0.21017192 0.65162838 6.1821757e-39
0.43913549 0.21838596 0.65273112 6.1821757e-39
0.44072238 0.2161721 0.65243155 6.1821757e-39
0.43469691 0.22434276 0.65256673 6.1821757e-39
0.43662357 0.22178181 0.65249664 6.1821757e-39
0.432345 0.22778627 0.65261739 6.1821757e-39
0.42963809 0.23342319 0.65187222 6.1821757e-39
0.43080983 0.2321492 0.65374154 6.1821757e-39
0.4285582 0.23753588 0.65208673 6.1821757e-39
0.43013847 0.23616666 0.65491498 6.2740112e-39
0.4281714 0.24140932 0.65323466 6.1821757e-39
0.42997181 0.24677633 0.65240949 5.8101338e-39
0.43250448 0.24906927 0.65078253 5.5324581e-39
0.43475354 0.25067025 0.65247166 6.0856304e-39
0.43731517 0.25298774 0.65083754 7.3760091e-39
0.51986945 -0.32834426 0.65522724 2.3064126e-39
0.52092916 -0.32757694 0.65792125 2.6755636e-39
0.52128941 -0.32232171 0.65702397 3.2287514e-39
0.52670813 -0.32436925 0.65504545 3.0443545e-39
0.52092046 -0.31740078 0.65908056 2.9517932e-39
0.52093261 -0.31270579 0.65906328 2.9517932e-39
0.52094483 -0.30801061 0.65904593 2.9517932e-39
0.52163947 -0.30236027 0.65859014 2.9517932e-39
0.52314627 -0.2975882 0.65743828 2.9517932e-39
0.52454382 -0.2927812 0.65793639 2.9517932e-39
0.5251826 -0.29048425 0.65836895 2.9517932e-39
0.52493519 -0.28941423 0.65604496 2.9517932e-39
0.5254283 -0.2870684 0.65757453 2.9517932e-39
0.52587354 -0.28271052 0.65738946 2.9517932e-39
0.52657068 -0.27721873 0.65793258 8.0217779e-39
0.52699399 -0.27232626 0.65714413 1.1801041e-38
0.52759147 -0.26737046 0.65736866 9.5861777e-39
0.52822787 -0.26253626 0.65788567 7.2802037e-39
0.52881366 -0.25735781 0.65744311 8.3887191e-39
0.52943695 -0.25241679 0.65694767 8.4809147e-39
0.5300262 -0.25041348 0.65955222 7.9262962e-39
0.52986848 -0.24931847 0.65710664 8.942616e-39
0.53023005 -0.24727051 0.65820014 8.5731118e-39
0.53063601 -0.24269454 0.65717363 8.4812749e-39
0.53125143 -0.23734593 0.65716922 8.3883576e-39
0.53187686 -0.23276843 0.6579622 8.2036062e-39
0.5324235 -0.22762215 0.65753311 8.3887177e-39
0.53277218 -0.22261563 0.65685558 7.0958125e-39
0.5332225 -0.21743958 0.65775102 7.8337391e-39
0.53349149 -0.21227983 0.65764242 8.7556954e-39
0.53387123 -0.20718081 0.65818173 1.0509217e-38
0.53413707 -0.2025377 0.65781194 1.1708845e-38
0.5346278 -0.19756313 0.65693843 1.1616651e-38
0.53550375 -0.19224928 0.6575411 4.5187419e-39
0.53667861 -0.18693437 0.65752083 2.9517932e-39
0.53792286 -0.18254291 0.65789372 2.9517932e-39
0.53923553 -0.17799318 0.65785784 2.9517932e-39
0.54015899 -0.17522059 0.65614241 2.9517932e-39
0.54096866 -0.17245531 0.65769285 2.9517932e-39
0.54259521 -0.16780491 0.65705907 2.9517932e-39
0.54414046 -0.16324271 0.65707469 2.9517932e-39
0.546588 -0.16067716 0.65746582 2.9517932e-39
0.54929191 -0.15890412 0.65698916 2.9517932e-39
0.55233735 -0.15704364 0.6581986 2.9517932e-39
0.52362144 -0.076294914 0.65791011 8.8162076e-39
0.51886129 -0.071192145 0.65801233 8.8162076e-39
0.52092236 -0.073434941 0.65818697 8.7243721e-39
0.52795464 -0.072843663 0.6569131 1.1524094e-38
0.51437342 -0.066266254 0.6564362 8.8162076e-39
0.51660991 -0.068725497 0.65723038 8.7243721e-39
0.50994241 -0.061192729 0.65750939 8.8162076e-39
0.51212811 -0.063628122 0.65835178 8.8162076e-39
0.50706106 -0.057875235 0.65770066 8.7243721e-39
0.50278199 -0.052969504 0.65728688 8.8162076e-39
0.4982613 -0.047720801 0.65781993 8.7243721e-39
0.49785858 -0.042614941 0.65788263 9.6668561e-39
0.5011996 -0.037099361 0.65774894 8.7243721e-39
0.5035007 -0.033668786 0.65756738 6.7039912e-39
0.50509191 -0.031465378 0.65656227 4.8672813e-39
0.50790501 -0.027659714 0.65780562 7.2550042e-39
0.51260847 -0.022411877 0.6576581 5.9693073e-39
0.51810336 -0.017920069 0.65776509 6.1529782e-39
0.52299893 -0.013701814 0.65718949 8.3570302e-39
0.52600724 -0.010849583 0.65720111 8.8162076e-39
0.52860975 -0.0082684867 0.65798455 8.8162076e-39
0.53130203 -0.0057046022 0.65776742 8.8162076e-39
0.53373253 -0.0033957069 0.65704155 8.7243721e-39
0.53624547 -0.0010545896 0.65754938 8.8162076e-39
0.53884387 0.0012924275 0.65795451 8.8162076e-39
0.54146463 0.0036467277 0.65834212 8.8162076e-39
0.54380602 0.0057425108 0.65824223 8.8162076e-39
0.54793859 0.0094192894 0.65705091 8.8162076e-39
0.55214268 0.013137348 0.65713298 8.8162076e-39
0.55761027 0.017956138 0.65777987 8.7243721e-39
0.56220222 0.022000562 0.65831894 8.8162076e-39
0.56500989 0.024442933 0.65727222 8.8162076e-39
0.56810874 0.027173286 0.6567443 8.8162076e-39
0.57054073 0.029365309 0.65666211 8.8162076e-39
0.57328928 0.031839877 0.6570673 8.7243721e-39
0.57606584 0.034323342 0.65744984 8.8162076e-39
0.57885933 0.0368178 0.65782803 8.7243721e-39
0.58166254 0.039321043 0.65820754 8.8162076e-39
0.58353806 0.040995762 0.65846139 8.8162076e-39
0.58639902 0.04353939 0.65747833 8.8162076e-39
0.58931029 0.046075117 0.65776515 8.8162076e-39
0.45748508 0.19487937 0.6584962 7.6562156e-39
0.46252951 0.19456023 0.65577966 6.7313656e-39
0.46588546 0.1948709 0.65721333 6.5458897e-39
0.4532966 0.1982678 0.65831751 7.3796315e-39
0.4560442 0.19583161 0.65719974 6.2743699e-39
0.46857923 0.19512026 0.65836418 6.730281e-39
0.47026294 0.19517782 0.65976959 6.4536941e-39
0.44919944 0.20356327 0.65751499 6.9190163e-39
0.45095155 0.20092171 0.65735489 8.0242792e-39
0.44676089 0.2074104 0.65699679 6.1821757e-39
0.44329831 0.21264772 0.65730137 6.1821757e-39
0.43906826 0.21844675 0.6575675 6.1821757e-39
0.44067359 0.21621503 0.65805978 6.1821757e-39
0.43439996 0.2246971 0.65864408 8.3930589e-39
0.43647763 0.22195673 0.65744871 6.6427909e-39
0.43291703 0.22687645 0.65704441 7.0112119e-39
0.44793245 0.22614837 0.65558642 4.699089e-39
0.43088508 0.23216365 0.65778869 7.4714684e-39
0.42931399 0.23756444 0.65746725 6.5505953e-39
0.42803782 0.24280648 0.6574707 6.9190163e-39
0.4294773 0.2457068 0.65746021 5.9963397e-39
0.43155178 0.24795957 0.65802068 5.7168507e-39
0.43492943 0.25114048 0.65773338 6.0856318e-39
0.52262968 -0.33047068 0.66463071 3.1365516e-39
0.51940262 -0.32658693 0.6638996 1.752859e-39
0.51953155 -0.32199582 0.66371655 2.9517932e-39
0.51966047 -0.31740236 0.66353345 2.9517932e-39
0.51978952 -0.31280652 0.66335028 2.9517932e-39
0.51989722 -0.30897495 0.66319746 2.9517932e-39
0.5205313 -0.30591869 0.66362321 2.9517932e-39
0.52162981 -0.30234912 0.66263479 2.9517932e-39
0.5231452 -0.29752269 0.66257799 2.9517932e-39
0.52453119 -0.29342538 0.66354096 2.9517932e-39
0.52517396 -0.29106572 0.66237199 2.9517932e-39
0.52599424 -0.28764918 0.66224957 2.9517932e-39
0.52671224 -0.28233105 0.66305256 3.0439874e-39
0.52717984 -0.27748957 0.66220814 9.2199497e-39
0.5277015 -0.27240646 0.66180789 1.1524094e-38
0.52838504 -0.26772574 0.66298282 7.2791219e-39
0.52892989 -0.26255029 0.66260034 8.2032461e-39
0.53760326 -0.26152813 0.66433161 2.9517932e-39
0.52948046 -0.25737062 0.66220993 7.0954524e-39
0.52968878 -0.25425088 0.66090918 7.7415448e-39
0.53025079 -0.2520422 0.66321802 5.8011038e-39
0.53077978 -0.24721622 0.66267145 5.6159909e-39
0.52804178 -0.24359345 0.66441941 5.9844146e-39
0.53132957 -0.24201523 0.66228467 5.8932994e-39
0.53186411 -0.23775187 0.66262925 5.8929393e-39
0.53265721 -0.23238647 0.66245276 5.4330556e-39
0.53302491 -0.22728707 0.66220272 5.9865769e-39
0.53365159 -0.22217444 0.66246814 6.8177837e-39
0.53420413 -0.21743937 0.66302884 7.0950908e-39
0.53678727 -0.21933475 0.66058385 1.0325187e-38
0.53439039 -0.21278226 0.6627717 8.5734705e-39
0.53452945 -0.20768268 0.66239065 7.5571508e-39
0.53475279 -0.20266168 0.66227108 1.0140073e-38
0.53501689 -0.20017147 0.66323006 1.1801041e-38
0.53490484 -0.19820847 0.66073692 1.1801041e-38
0.53540301 -0.19653839 0.66269624 1.1708845e-38
0.5362249 -0.19286183 0.66231996 8.6671403e-39
0.53748876 -0.18759528 0.6618101 2.9517932e-39
0.53883326 -0.18247509 0.66213846 2.9517932e-39
0.53960621 -0.17896606 0.66221172 2.9517932e-39
0.54029644 -0.17663881 0.66259134 2.9517932e-39
0.54120803 -0.17269063 0.66191262 2.9517932e-39
0.54277575 -0.16716965 0.66264641 2.9517932e-39
0.54426926 -0.16296788 0.66246819 2.9517932e-39
0.54606938 -0.16129085 0.6631102 2.9517932e-39
0.54878169 -0.15905924 0.66297358 2.9517932e-39
0.55217856 -0.15706831 0.66172028 2.951796e-39
0.56238484 -0.15817781 0.66466749 3.1365544e-39
0.52869749 -0.081063725 0.66273534 8.8162076e-39
0.53122234 -0.083501846 0.66451359 8.8162076e-39
0.52373713 -0.076007515 0.66174191 8.8162076e-39
0.52646244 -0.078460261 0.66263229 1.0205985e-38
0.51884943 -0.070796691 0.66335833 8.8162076e-39
0.52155757 -0.073741086 0.66172659 8.7243721e-39
0.51432741 -0.065883294 0.66185176 8.8162076e-39
0.516541 -0.068329014 0.66266799 8.7243721e-39
0.50985777 -0.060823772 0.66297889 8.8162076e-39
0.51215231 -0.063358873 0.66232491 8.8162076e-39
0.49701875 -0.056404777 0.6639539 1.134042e-38
0.50737083 -0.057925589 0.66206568 8.7243721e-39
0.50239128 -0.052327983 0.66242206 8.8162076e-39
0.49856347 -0.047800679 0.66220212 8.9998786e-39
0.49676535 -0.043272972 0.66296303 9.924716e-39
0.49837023 -0.039334685 0.66248828 9.4590561e-39
0.50524533 -0.031309705 0.66036516 5.6938008e-39
0.50877213 -0.025988873 0.6618911 5.9693073e-39
0.51253229 -0.022263641 0.66177666 6.4284847e-39
0.51779741 -0.017769335 0.66220367 6.5203202e-39
0.52278596 -0.013215642 0.66308612 8.7243721e-39
0.5260368 -0.010190282 0.66248655 8.8162076e-39
0.5288173 -0.007650435 0.66212732 8.7243721e-39
0.53106982 -0.0056056231 0.6620785 8.8162076e-39
0.53365517 -0.0032863151 0.66246533 8.8162076e-39
0.53626859 -0.00096013024 0.66282672 8.8162076e-39
0.53888142 0.0013764366 0.66320562 8.8162076e-39
0.54147673 0.0037218435 0.66362154 8.8162076e-39
0.54437333 0.0063125845 0.66188735 8.8162076e-39
0.54727334 0.0089360457 0.66148639 8.7243721e-39
0.54846084 0.010007721 0.6634053 8.8162076e-39
0.55213875 0.013173555 0.66243207 8.8162076e-39
0.55760741 0.017972533 0.66306633 8.8162076e-39
0.56310266 0.022812899 0.66241562 8.8162076e-39
0.56768906 0.026880613 0.66169286 8.7243721e-39
0.57033896 0.029333182 0.662202 8.8162076e-39
0.57302713 0.03179602 0.66267759 8.8162076e-39
0.57576662 0.034267798 0.66310036 8.8162076e-39
0.57825613 0.036480188 0.66298461 8.7243721e-39
0.58141255 0.039262004 0.66247284 8.8162076e-39
0.58326364 0.040930338 0.6627537 8.8162076e-39
0.58653015 0.043628614 0.66230917 8.7243721e-39
0.5893445 0.046005607 0.66166711 8.8162076e-39
0.59029454 0.045974642 0.66440874 8.8162076e-39
0.45857692 0.19451743 0.66217309 8.9455026e-39
0.45347792 0.19886458 0.66231292 7.4718257e-39
0.4563469 0.19618784 0.66252911 6.1821757e-39
0.44892839 0.20380022 0.66207379 8.9455096e-39
0.45085788 0.20135388 0.6625272 7.6558582e-39
0.44492728 0.2098515 0.66280591 8.5770901e-39
0.44667512 0.20724975 0.66262537 9.0377039e-39
0.44342861 0.2121959 0.66218597 5.3520633e-39
0.43895811 0.21848841 0.66243327 4.7066995e-39
0.44091195 0.2157362 0.66269743 4.7059806e-39
0.43445945 0.22441292 0.6631338 7.7476937e-39
0.4366959 0.22154857 0.66252422 5.9059531e-39
0.43236113 0.22732472 0.6621508 8.7611198e-39
0.42947733 0.23383807 0.66299295 8.8533154e-39
0.43047485 0.23080575 0.6635645 8.853314e-39
0.42822957 0.23793666 0.66285938 7.5636626e-39
0.42885387 0.24248065 0.66235101 6.0899801e-39
0.43014419 0.2447405 0.6632188 6.0892556e-39
0.43193257 0.24770072 0.66288936 5.6253768e-39
0.43666288 0.25264364 0.66303885 5.900879e-39
0.51961493 -0.32641268 0.66756189 1.7524989e-39
0.52244788 -0.32960647 0.66752559 3.1365516e-39
0.52966088 -0.32668892 0.66725874 3.0439874e-39
0.51977962 -0.32263649 0.66732937 2.9517932e-39
0.51988614 -0.31794268 0.66638803 2.9517932e-39
0.5200789 -0.31703547 0.66822541 2.9517932e-39
0.5199666 -0.31377774 0.66574669 2.9517932e-39
0.52014875 -0.31213096 0.66724783 2.9517932e-39
0.52065086 -0.30729964 0.66741765 2.9517932e-39
0.52211297 -0.30247024 0.66733634 2.9517932e-39
0.52370822 -0.29734781 0.66773093 2.9517932e-39
0.52474284 -0.29376802 0.6678192 2.9517932e-39
0.52537811 -0.29144546 0.6673699 2.9517932e-39
0.52645445 -0.28751031 0.66784191 3.781544e-39
0.52708441 -0.28244719 0.66762298 9.1281142e-39
0.52751094 -0.27759746 0.66684151 1.1432262e-38
0.52812225 -0.27256253 0.66749418 1.1708845e-38
0.52875787 -0.26753989 0.6681152 7.0014504e-39
0.52928323 -0.26272506 0.66719955 5.8003835e-39
0.52971882 -0.25862816 0.66633254 5.8914988e-39
0.53025305 -0.25639591 0.66848457 5.9836944e-39
0.53075451 -0.25236481 0.66797984 5.9833342e-39
0.53134656 -0.24755658 0.66697478 5.9833342e-39
0.53202367 -0.24291407 0.66735357 5.9836944e-39
0.53274131 -0.23750207 0.66768014 5.983693e-39
0.53330225 -0.23193578 0.66747063 5.9836944e-39
0.53379405 -0.22752827 0.66754442 6.0755299e-39
0.53428781 -0.22311886 0.66761744 5.983693e-39
0.53474218 -0.21809186 0.66711992 5.7071061e-39
0.53518546 -0.21586624 0.66826308 5.9836944e-39
0.53497827 -0.21389659 0.66592032 5.2475685e-39
0.53538126 -0.21157157 0.66755635 6.5397534e-39
0.5356167 -0.20739266 0.66767067 7.3724008e-39
0.53583401 -0.20275658 0.66737354 8.9400866e-39
0.53604788 -0.19779958 0.66708124 1.1801041e-38
0.5366106 -0.1922325 0.66781265 1.1432261e-38
0.53737706 -0.18765987 0.66684085 3.781544e-39
0.5386284 -0.18229122 0.66730964 2.9517932e-39
0.53954649 -0.17850666 0.66843462 2.9517932e-39
0.54022902 -0.17612885 0.6675083 2.9517932e-39
0.54181778 -0.17242539 0.66789031 2.9517932e-39
0.54374832 -0.16792634 0.66744637 2.9517932e-39
0.54568613 -0.16610837 0.66974759 2.9517932e-39
0.54461366 -0.1649062 0.66595286 2.9517932e-39
0.54660553 -0.16237757 0.66756517 2.9517932e-39
0.54921365 -0.15828831 0.66817021 2.9517932e-39
0.55353928 -0.15670457 0.66582566 3.1365544e-39
0.55794394 -0.15743816 0.66524899 3.1365544e-39
0.52917922 -0.081515819 0.6673454 8.8162076e-39
0.53173417 -0.084063366 0.66775483 8.7243721e-39
0.52367973 -0.07600414 0.66842788 8.8162076e-39
0.52645755 -0.077162646 0.66680592 8.8176482e-39
0.51915336 -0.071239665 0.66821522 8.8162076e-39
0.52126598 -0.073350437 0.66655046 8.8162076e-39
0.51375592 -0.065411523 0.66797066 8.8162076e-39
0.51584452 -0.067628607 0.66807264 8.8162076e-39
0.509031 -0.060421646 0.66815174 8.8162076e-39
0.51150376 -0.062976412 0.66723531 8.8162076e-39
0.50457978 -0.055510946 0.66798675 8.8162076e-39
0.50685716 -0.058013547 0.66732872 8.8162076e-39
0.50203884 -0.052294232 0.66772562 9.8263981e-39
0.49898401 -0.047312587 0.66584551 1.0101905e-38
0.50065917 -0.047994554 0.66775978 1.0101905e-38
0.4986321 -0.042995159 0.66609889 1.0101905e-38
0.50016254 -0.043755174 0.66782629 1.0101905e-38
0.49845585 -0.037589565 0.66702199 9.4590561e-39
0.49897161 -0.033738248 0.66825157 7.1631687e-39
0.50140834 -0.031543452 0.66864824 6.1529782e-39
0.50383502 -0.029394859 0.6677478 8.3570302e-39
0.50729561 -0.026511148 0.66669458 6.2448137e-39
0.51264435 -0.022086116 0.66692305 6.1529782e-39
0.51761454 -0.017587708 0.66775805 8.5407011e-39
0.52229869 -0.013367769 0.66826206 8.7243721e-39
0.5260303 -0.010089092 0.66645956 8.8162076e-39
0.52861273 -0.0077975551 0.66681486 8.8162076e-39
0.53120387 -0.0054982025 0.6671716 8.8162076e-39
0.533764 -0.003187018 0.66758728 8.8162076e-39
0.53630567 -0.00086706784 0.66804135 8.8162076e-39
0.53856659 0.0011964533 0.66801953 8.8162076e-39
0.54140902 0.0037804563 0.66765821 8.8162076e-39
0.54399192 0.0061122384 0.66679037 8.8162076e-39
0.54661882 0.0084694866 0.66718948 8.8162076e-39
0.54845202 0.010044547 0.6673547 8.8162076e-39
0.55213577 0.013209465 0.66768664 8.8162076e-39
0.55763036 0.017988591 0.66827631 8.8162076e-39
0.56347662 0.023132071 0.66664666 8.8162076e-39
0.56757522 0.026860051 0.66708136 8.8162076e-39
0.57015395 0.029301528 0.66767478 8.7243721e-39
0.57274222 0.031752057 0.66827041 8.8162076e-39
0.575405 0.034223415 0.66748333 8.8162076e-39
0.57880461 0.037115112 0.66773003 8.9998786e-39
0.58149517 0.039196499 0.66759133 9.0917141e-39
0.58378738 0.040873263 0.66731745 9.0917141e-39
0.58743602 0.042807572 0.66759396 9.5508916e-39
0.59182042 0.044271346 0.66902542 9.7345626e-39
0.59257954 0.04597592 0.66679049 9.7345626e-39
0.59569371 0.045988172 0.66945219 9.7345626e-39
0.4599514 0.19426775 0.66537648 9.1291722e-39
0.46087849 0.19404224 0.66793245 8.944781e-39
0.45339394 0.19846281 0.66787058 6.1821757e-39
0.45765439 0.19578107 0.66772062 6.366204e-39
0.44938934 0.20357631 0.66720313 6.1821757e-39
0.45113859 0.20112789 0.66722441 6.1821757e-39
0.44672835 0.20748538 0.66737288 6.181817e-39
0.44325894 0.21259788 0.66749018 1.5767536e-39
0.43902344 0.21856327 0.66723973 1.2990906e-39
0.44080254 0.21607077 0.66787958 1.2994493e-39
0.43449831 0.22452417 0.66808033 3.2297856e-39
0.4364199 0.22208598 0.66754723 1.5763935e-39
0.43217725 0.22768217 0.66764176 6.1821757e-39
0.42940935 0.23328662 0.6679104 6.2743699e-39
0.43040663 0.23115553 0.66687965 6.9190163e-39
0.42871863 0.23767169 0.66780752 6.1821757e-39
0.42946067 0.24230532 0.66895896 6.1821757e-39
0.43068111 0.24450189 0.66504043 5.4420771e-39
0.43269727 0.24839693 0.66569138 4.2413577e-39
0.43388426 0.25040323 0.6677627 4.6101402e-39
0.43996903 0.25500581 0.66565102 6.2693028e-39
0.51986337 -0.32590047 0.67246157 2.0294529e-39
0.52226686 -0.3287465 0.67040634 3.1365516e-39
0.51992941 -0.32320687 0.67106158 2.9517932e-39
0.52006888 -0.32198504 0.67282712 2.9517932e-39
0.52026308 -0.31726238 0.67208821 2.9517932e-39
0.52046281 -0.31234983 0.6716215 2.9517932e-39
0.5214262 -0.30755857 0.67210311 2.9517946e-39
0.52260196 -0.30223006 0.67255354 2.9517932e-39
0.52399105 -0.2973575 0.67248541 2.9517932e-39
0.52485681 -0.29448989 0.6733346 2.9517932e-39
0.52556247 -0.29181245 0.67235661 2.9517932e-39
0.52678353 -0.28759745 0.67271644 7.3764155e-39
0.52751458 -0.28259754 0.67207974 1.1708845e-38
0.52803302 -0.27729547 0.67220247 1.1801041e-38
0.52863562 -0.27277231 0.67300212 1.1708845e-38
0.5292241 -0.26735762 0.67233258 7.6468227e-39
0.52973485 -0.2627911 0.67155492 5.9836944e-39
0.53017396 -0.26102695 0.67338562 5.9836944e-39
0.53057611 -0.25764096 0.67294174 5.983693e-39
0.53121519 -0.25263378 0.67239213 5.8914988e-39
0.53196269 -0.2473795 0.67214918 5.9833342e-39
0.53280252 -0.24235322 0.6730119 5.983693e-39
0.53339809 -0.23754393 0.67201275 5.8914974e-39
0.53407788 -0.23291087 0.67238694 5.9833342e-39
0.53468341 -0.22806241 0.67243189 6.0755299e-39
0.53513479 -0.22584571 0.67355394 6.0755299e-39
0.53490841 -0.22389147 0.67125714 5.9836944e-39
0.53529656 -0.22188652 0.67229211 5.9833342e-39
0.53577971 -0.21751507 0.67267567 5.983693e-39
0.53606784 -0.21293333 0.67228425 5.9836944e-39
0.5364238 -0.20772393 0.67291832 5.8914974e-39
0.53670603 -0.20239267 0.67290741 9.4014249e-39
0.53697622 -0.19737507 0.67235518 1.1801041e-38
0.53726727 -0.19277702 0.67196065 1.1708845e-38
0.53764606 -0.18756467 0.67216939 4.4265477e-39
0.53869975 -0.18235697 0.67305934 2.9517932e-39
0.53964859 -0.17911774 0.6713444 2.9517932e-39
0.54098338 -0.17697656 0.67301518 2.9517932e-39
0.54270709 -0.17299494 0.6721099 2.9517932e-39
0.54458207 -0.16915293 0.67295766 2.9517932e-39
0.54577935 -0.1665512 0.67222619 2.9517932e-39
0.54771239 -0.16248807 0.67225206 2.9517932e-39
0.54947525 -0.15876208 0.67337751 2.9517932e-39
0.55036026 -0.15688044 0.67263961 2.9517932e-39
0.52876961 -0.081112213 0.67184126 8.8162076e-39
0.53219676 -0.083720289 0.67234945 8.8183684e-39
0.52326393 -0.075877264 0.6729393 8.7243721e-39
0.52581072 -0.078500271 0.67201138 8.8162076e-39
0.51899856 -0.071175948 0.67236692 8.8162076e-39
0.521056 -0.073429786 0.67210019 8.8162076e-39
0.53242207 -0.073227778 0.67169309 1.4474712e-38
0.51409781 -0.065874122 0.67274141 8.8162076e-39
0.51694918 -0.06893108 0.67263418 8.8162076e-39
0.50876808 -0.06011606 0.67247504 8.8162076e-39
0.51100922 -0.062533177 0.67320287 8.7243721e-39
0.50449878 -0.055168226 0.67337167 8.8162076e-39
0.50653362 -0.057706185 0.67174953 8.8162076e-39
0.50190485 -0.052293014 0.67266828 8.8162076e-39
0.49831024 -0.047849298 0.67449129 9.096756e-39
0.49671364 -0.040942583 0.67420244 6.4511732e-39
0.49838588 -0.03770278 0.67241043 4.6872116e-39
0.50082511 -0.035877131 0.67344952 8.6325366e-39
0.5026772 -0.032569248 0.67178035 6.6121557e-39
0.5054673 -0.030767001 0.67328674 5.4182943e-39
0.50699466 -0.027826237 0.67196178 6.4284847e-39
0.50972921 -0.024855351 0.67240888 6.5203202e-39
0.51282424 -0.021916024 0.67193025 6.4284847e-39
0.51771188 -0.017429383 0.6728701 8.7243721e-39
0.52262878 -0.012945962 0.67251897 8.8162076e-39
0.52772516 -0.0084330123 0.67197728 8.7243721e-39
0.53110802 -0.005379484 0.67253852 8.8162076e-39
0.53362608 -0.0030765976 0.67300451 8.8162076e-39
0.5361523 -0.00076645147 0.67347157 8.8162076e-39
0.53905225 0.0017736951 0.67171603 8.8162076e-39
0.54132712 0.0038391566 0.67168587 8.7243721e-39
0.54390085 0.006179776 0.67213637 8.8162076e-39
0.54656976 0.0085257385 0.6724726 8.8162076e-39
0.54837644 0.010094739 0.67266941 8.8162076e-39
0.55198365 0.013247379 0.67309469 8.8162076e-39
0.55700779 0.017606447 0.67299151 8.8162076e-39
0.56303459 0.02280551 0.67164558 8.8162076e-39
0.56756866 0.026840702 0.67228866 8.7243721e-39
0.5701859 0.02927297 0.67282617 8.8162076e-39
0.57276154 0.031713806 0.6734314 8.8162076e-39
0.57531387 0.034185205 0.67149317 8.8162076e-39
0.57764333 0.03636859 0.67243654 8.8162076e-39
0.58057994 0.039101295 0.67391974 8.8162076e-39
0.45954764 0.19461143 0.67273152 7.4700138e-39
0.46279946 0.19381328 0.67157894 7.6544065e-39
0.46740016 0.19441731 0.67233706 7.0994236e-39
0.4533174 0.19858816 0.67282879 6.1821757e-39
0.45653448 0.1965224 0.67246944 6.3662054e-39
0.44898161 0.20392832 0.67236054 6.1821757e-39
0.45087042 0.2014503 0.67250431 6.1821757e-39
0.44667429 0.2075379 0.67268294 5.9055916e-39
0.4434028 0.21277009 0.67269164 1.8457875e-39
0.44509292 0.21007854 0.67067188 4.0602567e-39
0.43891555 0.21886906 0.67215967 1.5720789e-39
0.44082594 0.21629593 0.6723454 1.8461449e-39
0.4345457 0.22480103 0.67476732 3.5067298e-39
0.43639973 0.22227202 0.67242247 1.8461463e-39
0.43295538 0.22715384 0.67235416 5.9055902e-39
0.44224679 0.22593689 0.67354691 4.6061689e-39
0.42963544 0.23337539 0.67119837 6.1821757e-39
0.43036747 0.23172095 0.67320061 6.1821757e-39
0.42975688 0.23689412 0.67284769 6.1821757e-39
0.42983675 0.24229077 0.67194021 6.1821757e-39
0.42980266 0.2458486 0.67199838 6.1821757e-39
0.43236476 0.24859172 0.67170382 5.4409869e-39
0.43470532 0.25068599 0.67449903 6.0859934e-39
0.43617752 0.25220749 0.67202365 5.5320965e-39
0.52107728 -0.32667238 0.67792547 1.6610221e-39
0.52046961 -0.32295009 0.67754495 2.8595975e-39
0.52022749 -0.31736913 0.67734689 2.9517932e-39
0.52041095 -0.31246731 0.67690629 2.9517932e-39
0.5210216 -0.30750111 0.6773541 2.9517932e-39
0.52252269 -0.3025305 0.67749554 2.9517932e-39
0.52407664 -0.29750776 0.67719895 2.9517932e-39
0.52496338 -0.29446632 0.67967373 2.9517932e-39
0.52569753 -0.29214683 0.67737079 2.9517932e-39
0.52702641 -0.28762275 0.67748642 9.7731179e-39
0.52802414 -0.28243905 0.67695123 1.1708845e-38
0.52865165 -0.27781236 0.67777562 1.1708845e-38
0.5292781 -0.27241844 0.67745453 1.1708845e-38
0.52974665 -0.26785296 0.67674047 9.7705704e-39
0.53011698 -0.26599151 0.67778885 9.9556805e-39
0.53049254 -0.262696 0.67784917 7.2780373e-39
0.53109866 -0.25767407 0.67774361 5.9836944e-39
0.5317167 -0.25254887 0.67690247 5.8914974e-39
0.53253484 -0.2476159 0.6780526 5.9833342e-39
0.53321075 -0.24262951 0.6774599 6.0755299e-39
0.52417719 -0.2366638 0.67958045 8.8511714e-39
0.53393257 -0.2373506 0.67691189 5.8914974e-39
0.53472394 -0.23270075 0.67799574 5.9833342e-39
0.53516781 -0.23031478 0.67868811 6.0755299e-39
0.53542036 -0.22756638 0.67705518 5.8914988e-39
0.53605044 -0.22265489 0.67723733 5.983693e-39
0.53666478 -0.2174776 0.67796075 5.9833342e-39
0.53693837 -0.21212232 0.67759275 5.8918575e-39
0.53712386 -0.20750575 0.67734307 5.8000234e-39
0.53730947 -0.20288591 0.67709321 9.4936219e-39
0.53759015 -0.19735709 0.67714554 1.1801041e-38
0.5379737 -0.19223864 0.67774808 1.1708845e-38
0.53831846 -0.18750659 0.67776573 5.2562986e-39
0.53924072 -0.18320522 0.67682427 2.9517932e-39
0.540308 -0.18173313 0.67866445 2.9517932e-39
0.54169595 -0.17767772 0.67767179 2.9517932e-39
0.54373926 -0.17253236 0.67753053 2.9517932e-39
0.54460019 -0.16969423 0.6763885 2.9517932e-39
0.5459488 -0.16711867 0.67746651 2.9517932e-39
0.54801887 -0.16218148 0.67745423 2.9517932e-39
0.54946226 -0.1587988 0.67684251 2.9517932e-39
0.55052334 -0.15668072 0.67802477 2.9517932e-39
0.53412455 -0.085023411 0.67751563 1.0407661e-38
0.52924919 -0.081453644 0.67767775 1.059025e-38
0.53058684 -0.082957663 0.67973089 1.1616286e-38
0.52408493 -0.076403186 0.67700213 1.0404781e-38
0.52649724 -0.078891329 0.67756677 1.0776805e-38
0.51934713 -0.071365915 0.67709136 9.0236474e-39
0.52168131 -0.073923975 0.67643958 9.3863077e-39
0.5143702 -0.066321231 0.67756784 9.022567e-39
0.51643938 -0.068523169 0.67769319 9.0243677e-39
0.51190418 -0.063480303 0.67715138 9.0232873e-39
0.50726581 -0.058166757 0.67723686 9.1158431e-39
0.50202703 -0.052139837 0.67750007 1.1056993e-38
0.49735147 -0.046547621 0.67771924 1.1429374e-38
0.49608192 -0.042524062 0.67800379 9.6747762e-39
0.49896944 -0.038626488 0.67745221 7.5308708e-39
0.50126737 -0.035744205 0.67673397 6.2448137e-39
0.5034306 -0.03267647 0.67774111 5.9743477e-39
0.50523293 -0.030629918 0.67623889 7.3468397e-39
0.50755113 -0.027318124 0.67761028 5.9693073e-39
0.50954753 -0.024640605 0.67789084 4.3162683e-39
0.5126707 -0.021718001 0.67736775 8.0815237e-39
0.51758713 -0.017254932 0.67825037 8.8162076e-39
0.52291763 -0.012526765 0.67680275 8.8162076e-39
0.52762336 -0.0083012665 0.67731738 8.7243721e-39
0.53100044 -0.0052611101 0.67787689 8.7243721e-39
0.53355747 -0.0029703756 0.6782825 8.8162076e-39
0.53612316 -0.00067205168 0.67868936 8.8162076e-39
0.53868771 0.0015946697 0.67653298 8.8162076e-39
0.54127479 0.0039149383 0.67694294 8.8162076e-39
0.54385006 0.0062455311 0.67738456 8.7243721e-39
0.54642904 0.0085838493 0.67783374 8.8162076e-39
0.54902726 0.010931506 0.67827326 8.8162076e-39
0.55261934 0.014064963 0.67742884 8.7243721e-39
0.55757248 0.018334648 0.67690557 8.8162076e-39
0.56271893 0.022801885 0.67721695 8.8162076e-39
0.567352 0.026819682 0.67772156 8.7243721e-39
0.57016444 0.02924394 0.67800426 8.8162076e-39
0.57283854 0.031676866 0.67847896 8.8162076e-39
0.57540762 0.034139261 0.67653334 8.8162076e-39
0.57801974 0.036592368 0.6771155 8.8162076e-39
0.58063984 0.039052911 0.67769939 8.8162076e-39
0.58326989 0.041522797 0.67828548 8.8162076e-39
0.45997444 0.19419517 0.67604601 9.0373353e-39
0.46112376 0.19406056 0.67820323 8.2997717e-39
0.45363349 0.19841798 0.67817926 8.6689256e-39
0.45768785 0.19558451 0.67807853 8.3923331e-39
0.44929466 0.20395614 0.67719322 6.4584011e-39
0.45126221 0.20139003 0.67712086 6.4587598e-39
0.44698191 0.20728305 0.67748761 6.5502365e-39
0.44336611 0.21268381 0.67696124 3.9622933e-39
0.4450267 0.21020213 0.67881048 4.0595364e-39
0.43900329 0.21855363 0.67751563 3.317654e-39
0.4408246 0.21612076 0.67771029 4.0537659e-39
0.4347727 0.22443935 0.67707181 2.5837057e-39
0.43634033 0.22220026 0.67751247 2.0298145e-39
0.44196492 0.22252227 0.67504948 6.2743699e-39
0.43255156 0.22774601 0.67752361 6.6427909e-39
0.42988068 0.23437887 0.67994183 6.826822e-39
0.43086544 0.23228015 0.67693782 6.2743699e-39
0.42950559 0.23945987 0.67520785 6.1821757e-39
0.43020159 0.23717736 0.67671859 6.1821757e-39
0.42906031 0.24266715 0.67711592 6.1821743e-39
0.42990258 0.2462789 0.67722511 6.1800009e-39
0.43184644 0.24783668 0.67863584 6.0867178e-39
0.43706989 0.25252694 0.67859137 6.8228367e-39
0.52394527 -0.33017224 0.68364233 1.3837052e-39
0.52298844 -0.32687181 0.68270606 1.9372573e-39
0.52214539 -0.32219559 0.68268585 2.9517932e-39
0.52115005 -0.31737778 0.68234217 2.9517932e-39
0.52056849 -0.31279311 0.68240923 2.9517932e-39
0.52089226 -0.30763221 0.68233025 2.9517932e-39
0.52246356 -0.30251426 0.68246257 2.9517932e-39
0.52405995 -0.29743603 0.68220013 2.9517932e-39
0.52568865 -0.29238927 0.68254113 2.9517932e-39
0.52734643 -0.28734791 0.68284923 1.041812e-38
0.52846611 -0.28217196 0.68228769 1.1801041e-38
0.5218215 -0.27827245 0.68380284 3.0443545e-39
0.52913541 -0.27732429 0.68280143 1.1801041e-38
0.5297038 -0.27262679 0.68221408 1.1708845e-38
0.53008789 -0.27021962 0.68297815 1.1801041e-38
0.52998614 -0.26920944 0.6805467 1.1801041e-38
0.53043771 -0.26687258 0.68250233 1.1708845e-38
0.53099024 -0.26267472 0.68303901 1.1708845e-38
0.53153366 -0.25753877 0.68230504 9.6783733e-39
0.53225207 -0.25208032 0.68229622 7.9241298e-39
0.53295356 -0.24763261 0.68295503 7.2776786e-39
0.53362757 -0.24253674 0.68204808 5.7078264e-39
0.53445596 -0.23764062 0.68278533 6.9085332e-39
0.53485686 -0.23432331 0.68167949 5.7993017e-39
0.53526866 -0.23234287 0.68266475 5.8007423e-39
0.53598487 -0.2274445 0.68221664 6.5386702e-39
0.5368486 -0.22245343 0.68303901 7.2780373e-39
0.53735268 -0.21759719 0.68218285 7.2780387e-39
0.53755903 -0.21259502 0.68172395 7.8322943e-39
0.53794348 -0.20747678 0.68267405 1.1063113e-38
0.53817505 -0.20237923 0.68262124 1.1801041e-38
0.53837037 -0.19764931 0.68242526 1.1801041e-38
0.53868908 -0.19273464 0.68296236 1.1708845e-38
0.53899992 -0.18739247 0.68254864 5.901661e-39
0.53976238 -0.18378547 0.68153334 2.9517932e-39
0.54028982 -0.18165639 0.68364942 2.9517932e-39
0.54122323 -0.17778647 0.68268859 4.5187405e-39
0.54283339 -0.17274472 0.68335247 2.9517932e-39
0.54420316 -0.16682367 0.68461281 2.9517932e-39
0.54527819 -0.16739985 0.68192029 2.9517932e-39
0.5469889 -0.16296856 0.68180466 2.9517932e-39
0.54882073 -0.15844041 0.6823917 2.9517932e-39
0.55207199 -0.15600428 0.68301451 2.9521561e-39
0.55755484 -0.15639481 0.68384302 3.0443545e-39
0.53466952 -0.086034901 0.68449175 1.4198487e-38
0.52902347 -0.081089191 0.68185425 1.1616285e-38
0.53150022 -0.083597168 0.68235195 1.1616648e-38
0.52379203 -0.076041326 0.68128234 1.1247867e-38
0.52640307 -0.07856074 0.68156767 1.1616286e-38
0.51852983 -0.07133878 0.68338871 9.0351717e-39
0.52119267 -0.073533207 0.68099809 9.8649324e-39
0.51419759 -0.066686615 0.68298286 9.0351717e-39
0.51654911 -0.069218293 0.6822778 9.0351717e-39
0.50926173 -0.061030887 0.68217802 9.0351717e-39
0.51110476 -0.063171282 0.68259221 9.0351717e-39
0.50474137 -0.055988461 0.68471414 1.1432258e-38
0.50640678 -0.057773575 0.68235058 9.4039542e-39
0.50258714 -0.052920889 0.68305665 1.1708845e-38
0.49858919 -0.046962436 0.68242097 1.1616285e-38
0.50076807 -0.049725495 0.68393922 1.1616647e-38
0.49644491 -0.042197138 0.68296832 1.1154589e-38
0.49771655 -0.038276795 0.68316275 7.0000239e-39
0.50000179 -0.036228735 0.68116194 5.8774718e-39
0.50222856 -0.032639213 0.68262267 6.7050716e-39
0.50673544 -0.027363829 0.68317336 5.7856363e-39
0.50942421 -0.024482055 0.68194973 8.8162076e-39
0.51263255 -0.021531662 0.68259722 8.7243721e-39
0.51758397 -0.017091421 0.68341655 8.8169279e-39
0.52256441 -0.012689821 0.68168324 8.7243721e-39
0.52761453 -0.0081760129 0.68248606 8.8169279e-39
0.53099906 -0.0051492993 0.68302679 8.3588392e-39
0.53324956 -0.0031292513 0.68298465 7.8993044e-39
0.53613126 -0.00060304254 0.68253547 8.44923e-39
0.53868228 0.0016779131 0.68169063 8.357756e-39
0.54123002 0.0039898437 0.68214667 8.1744494e-39
0.54377842 0.0063113738 0.68261707 7.7159978e-39
0.54633492 0.0086403172 0.68308914 7.3497418e-39
0.54864436 0.010714385 0.68304807 7.4412157e-39
0.55245143 0.014091259 0.68149662 8.174448e-39
0.55689549 0.018034058 0.68214005 7.9000261e-39
0.56245399 0.022798391 0.68267721 9.0042002e-39
0.56771362 0.027283113 0.68289107 9.1911124e-39
0.57001084 0.029206321 0.68457997 9.8433244e-39
0.57247615 0.031371575 0.68318909 9.2840283e-39
0.57543516 0.034092244 0.68161714 8.8165678e-39
0.5780201 0.036535304 0.6822269 9.0038401e-39
0.58060658 0.038985424 0.68284595 9.2843885e-39
0.58322078 0.04144524 0.6834451 9.5642165e-39
0.58609873 0.043943524 0.68246263 9.3769442e-39
0.58846402 0.045597885 0.68339396 9.7496882e-39
0.45998463 0.19488838 0.68131161 6.4580381e-39
0.46203154 0.19411071 0.68283236 7.6551296e-39
0.46520269 0.1928183 0.68104482 1.0511384e-38
0.45352191 0.19879194 0.68231881 8.0246394e-39
0.4569481 0.19654953 0.68280733 7.1956046e-39
0.44919729 0.20419008 0.68176872 1.0051131e-38
0.45102286 0.20168608 0.68279427 8.7611198e-39
0.44674656 0.20772023 0.68264014 8.023559e-39
0.44323224 0.21273112 0.68252921 4.6980465e-39
0.43882895 0.21880221 0.6825937 3.4098468e-39
0.44054127 0.21644242 0.68260479 1.9376216e-39
0.4347499 0.22468197 0.68376946 3.8747906e-39
0.43651342 0.22208704 0.68217283 3.317654e-39
0.43305516 0.22740637 0.68260956 8.3926988e-39
0.42983794 0.2338625 0.68268085 7.9320836e-39
0.43087104 0.23167396 0.68246502 9.4061249e-39
0.42853877 0.23659153 0.68309355 7.7476937e-39
0.42886287 0.24207798 0.68165827 6.2732839e-39
0.43026251 0.24375147 0.68329632 5.9941607e-39
0.43215236 0.24708414 0.6827898 5.9012406e-39
0.43442264 0.25036943 0.68298846 6.5469729e-39
0.44088501 0.25462601 0.68292522 7.1919794e-39
0.52511233 -0.33106697 0.68716633 1.3837066e-39
0.52409238 -0.32802963 0.68702078 1.9372545e-39
0.52265817 -0.32183167 0.68731821 2.8595975e-39
0.52149332 -0.3173885 0.68827063 2.9517932e-39
0.52069342 -0.31196481 0.68707025 2.9517932e-39
0.52139312 -0.30756727 0.68764281 2.9517932e-39
0.52285862 -0.302497 0.68736303 2.9517932e-39
0.5242601 -0.29778391 0.68704891 2.9517932e-39
0.52517498 -0.29583803 0.68962622 2.9517932e-39
0.52597374 -0.29241925 0.68708897 2.9517932e-39
0.52752519 -0.28772846 0.68771929 9.2199497e-39
0.52857608 -0.28264919 0.68757302 1.1801041e-38
0.5292505 -0.27770963 0.68775666 1.1708845e-38
0.52976608 -0.27377409 0.6872443 1.1708845e-38
0.53010124 -0.27129126 0.68721819 1.1801041e-38
0.53059632 -0.26788718 0.68771821 1.1708845e-38
0.53131676 -0.26246473 0.68770713 1.1708845e-38
0.53202182 -0.25709242 0.68730682 1.1708845e-38
0.53260159 -0.25294244 0.68757534 1.1801041e-38
0.53340042 -0.24753998 0.68746281 1.1708845e-38
0.5342232 -0.24214266 0.68731713 1.1708845e-38
0.53479147 -0.23876041 0.68772656 1.1708845e-38
0.53516906 -0.23627567 0.68764722 1.1432257e-38
0.53572971 -0.23230208 0.68708295 1.1524092e-38
0.53651845 -0.22775379 0.68807685 1.1708845e-38
0.53723329 -0.22237805 0.6872654 1.1708845e-38
0.5378719 -0.2172716 0.68678194 1.1708845e-38
0.53835088 -0.21243446 0.68749011 1.1708845e-38
0.53868753 -0.20741837 0.68806273 1.1801041e-38
0.53887194 -0.20283134 0.68781918 1.1801041e-38
0.53911889 -0.19748884 0.68749297 1.1801041e-38
0.5393905 -0.19215159 0.68713403 8.85117e-39
0.53962535 -0.187573 0.68682379 3.3205715e-39
0.54020345 -0.18639113 0.68986845 2.9517932e-39
0.53978872 -0.18473023 0.68533534 2.9517932e-39
0.54064447 -0.18246511 0.68783891 2.9517932e-39
0.54184365 -0.17711948 0.68742949 2.9517932e-39
0.54295349 -0.17243432 0.6875248 2.9517932e-39
0.54413295 -0.1677653 0.6875304 2.9517932e-39
0.54487312 -0.16355024 0.68628061 2.9517932e-39
0.54630286 -0.1623936 0.68822134 2.9517932e-39
0.5486145 -0.15869778 0.68699092 2.9517932e-39
0.55190098 -0.15680985 0.68831939 2.951796e-39
0.55803436 -0.15724666 0.68957108 3.0443545e-39
0.52870941 -0.080991141 0.68739408 1.2907022e-38
0.53242022 -0.08324676 0.68750268 1.4474712e-38
0.53619254 -0.084250882 0.68882859 1.4382518e-38
0.52339816 -0.076330677 0.68694681 1.1340061e-38
0.52607048 -0.078852147 0.68713915 1.1524451e-38
0.51789826 -0.071187094 0.68810272 9.0351717e-39
0.52074623 -0.07382077 0.68674141 9.7727368e-39
0.51366466 -0.066315457 0.68757081 9.0351717e-39
0.51579535 -0.06870316 0.68844926 9.0351717e-39
0.50872099 -0.060592912 0.68807697 9.0351717e-39
0.51086807 -0.063058317 0.68763018 9.0351717e-39
0.50463474 -0.055725813 0.68871164 1.1708845e-38
0.50662231 -0.058230303 0.68718797 9.0351717e-39
0.50335711 -0.05312527 0.68667799 1.1708845e-38
0.50077975 -0.048069268 0.68649727 1.1615925e-38
0.49782881 -0.042520024 0.6865015 1.1524087e-38
0.49763098 -0.037053552 0.68825197 9.1255611e-39
0.49968415 -0.034439221 0.68677849 4.9652391e-39
0.50262588 -0.031679571 0.68800282 9.9438031e-39
0.49668482 -0.028695678 0.68510997 8.7243721e-39
0.50698739 -0.027181616 0.6879552 9.388107e-39
0.50978607 -0.024321426 0.68658447 9.4691398e-39
0.51204205 -0.022105329 0.68727183 9.7500483e-39
0.51440716 -0.019892346 0.68781763 1.0029876e-38
0.5173521 -0.017241007 0.68808961 1.0216787e-38
0.5225547 -0.012546201 0.68682331 9.6574912e-39
0.52738094 -0.008038816 0.6879155 1.0125672e-38
0.53072149 -0.0050515104 0.68723446 7.270162e-39
0.53352207 -0.0025404152 0.68687648 4.4175346e-39
0.53577757 -0.00051885657 0.68683696 4.5090099e-39
0.53834486 0.0017733285 0.68724579 4.1423938e-39
0.54092121 0.0040731439 0.68765545 3.8679719e-39
0.54346651 0.0063837836 0.6881215 3.4095203e-39
0.54599917 0.0087023824 0.6886161 3.2262151e-39
0.54898131 0.01126852 0.68685371 3.9590857e-39
0.55222613 0.014126222 0.68688452 3.7757763e-39
0.55498296 0.016470755 0.68587339 4.0509184e-39
0.55729568 0.018365692 0.68747693 5.4360011e-39
0.56260616 0.022795498 0.68756437 1.1056993e-38
0.56815541 0.027582014 0.6881699 1.1243904e-38
0.57292229 0.03188258 0.68686098 1.0964074e-38
0.57526517 0.034041353 0.68690586 1.0963714e-38
0.57786971 0.036474824 0.68748391 1.133682e-38
0.58046722 0.038915288 0.68808216 1.152301e-38
0.58360136 0.041383229 0.68804252 1.152445e-38
0.58698457 0.043871455 0.68771803 1.1616647e-38
0.58925223 0.045539245 0.6875006 1.1616647e-38
0.46322137 0.19394326 0.68724787 8.2079418e-39
0.46600771 0.19345075 0.68763053 1.1155671e-38
0.45411476 0.19937436 0.6870575 6.1821757e-39
0.45742589 0.19740669 0.68728662 6.2743713e-39
0.46075997 0.19548817 0.68794078 6.2743713e-39
0.44901752 0.20425017 0.68730944 6.1821757e-39
0.45141014 0.20127575 0.68742317 6.1821757e-39
0.44672474 0.20769085 0.6872744 5.9052315e-39
0.43731633 0.21041927 0.68945682 3.7818719e-39
0.44317842 0.21271738 0.68774933 2.4904269e-39
0.4391951 0.21826696 0.68779266 2.12165e-39
0.44081813 0.2159923 0.68698633 1.9376202e-39
0.43649173 0.22222251 0.68749273 2.6737349e-39
0.43338418 0.22732846 0.68735373 5.9977858e-39
0.42971814 0.23447612 0.68685693 9.3139306e-39
0.43118683 0.23160119 0.68761152 7.1034061e-39
0.42835459 0.23731411 0.68744117 8.5767271e-39
0.42874169 0.24080242 0.6871683 6.1800009e-39
0.43065625 0.24363968 0.68793142 6.1778275e-39
0.43307066 0.24739629 0.68699533 5.7172081e-39
0.43548846 0.25105256 0.6878258 5.9934362e-39
0.44154575 0.25482035 0.68973559 5.7168493e-39
0.52256119 -0.32705349 0.69316322 2.5830037e-39
0.52196836 -0.32242194 0.69270092 2.8599563e-39
0.52135408 -0.31740484 0.69269037 2.9517932e-39
0.52103245 -0.3120091 0.69207329 2.9517932e-39
0.52230281 -0.30738598 0.69288003 2.9517932e-39
0.52359158 -0.30267778 0.69227386 2.9517932e-39
0.52967799 -0.30466437 0.69175571 4.0703446e-39
0.5246219 -0.29859751 0.69121891 2.9517932e-39
0.52538401 -0.29691806 0.69339436 2.9517932e-39
0.52650565 -0.29242718 0.69205368 2.9517932e-39
0.5278365 -0.28781295 0.69255388 6.7310531e-39
0.52889633 -0.2828925 0.69249731 1.1708845e-38
0.52962953 -0.27787331 0.69250005 1.1801041e-38
0.53006572 -0.27551651 0.69318104 1.1801041e-38
0.52989483 -0.27448398 0.69088215 1.1801041e-38
0.53046107 -0.27197254 0.69233596 1.1801041e-38
0.54481 -0.27312112 0.69270825 1.0785445e-38
0.53120458 -0.2674042 0.69292444 1.1801041e-38
0.53181958 -0.26235503 0.69210583 1.1801041e-38
0.5324986 -0.25781485 0.69246382 1.1708845e-38
0.53325319 -0.25253972 0.69272548 1.1708845e-38
0.53395522 -0.24716918 0.69233483 1.1801041e-38
0.53458899 -0.24292772 0.69221634 1.1801041e-38
0.53506184 -0.24108963 0.69411367 1.1801041e-38
