# .PCD v0.7 - Point Cloud Data file format
VERSION 0.7
FIELDS x y z rgb
SIZE 4 4 4 4
TYPE F F F F
COUNT 1 1 1 1
WIDTH 1005
HEIGHT 1
VIEWPOINT 0 0 0 1 0 0 0
POINTS 1005
DATA ascii
0.34722164 -0.27252916 0.61000013 1.0879084e-38
0.35219386 -0.27263013 0.61000007 1.0879084e-38
0.35706812 -0.27247152 0.61000007 1.0879084e-38
0.36213431 -0.27257314 0.61000007 1.0879084e-38
0.36710119 -0.27241275 0.61000007 1.0879084e-38
0.37226394 -0.27251509 0.61000007 1.0879084e-38
0.37747982 -0.27253667 0.61000007 1.0879084e-38
0.38258818 -0.27245596 0.61000007 1.0879084e-38
0.38721028 -0.27245736 0.61000007 1.0879084e-38
0.39249316 -0.2724275 0.61000007 1.0879084e-38
0.39782518 -0.2723968 0.61000013 1.0879084e-38
0.40259266 -0.27264309 0.61000007 1.0879084e-38
0.40724564 -0.27240664 0.61000007 1.0879084e-38
0.41256818 -0.27263093 0.61000007 1.0879084e-38
0.41825643 -0.27234447 0.61000007 1.0879084e-38
0.42272219 -0.27261883 0.61000007 1.0879084e-38
0.42754665 -0.27237791 0.61000013 1.0879084e-38
0.43257529 -0.27263018 0.61000007 1.0879084e-38
0.4374848 -0.27238727 0.61000007 1.0879084e-38
0.44260296 -0.27264243 0.61000007 1.0879084e-38
0.4475998 -0.27239743 0.61000007 1.0879084e-38
0.45247167 -0.27241516 0.61000007 1.0879084e-38
0.45738497 -0.27243224 0.61000007 1.0879084e-38
0.46268356 -0.27243289 0.61000007 1.0879084e-38
0.46785745 -0.27244228 0.61000007 1.0879084e-38
0.47325259 -0.27270454 0.61000007 1.0879084e-38
0.47658214 -0.27228403 0.61000001 1.0879084e-38
0.4817051 -0.27230135 0.61000007 1.0879084e-38
0.48722854 -0.27256539 0.61000007 1.0879084e-38
0.49262354 -0.2725755 0.61000007 1.0879084e-38
0.49825001 -0.27257761 0.61000007 1.0879084e-38
0.50725198 -0.27242416 0.61000007 1.0879084e-38
0.51283014 -0.27243388 0.61000013 1.0879084e-38
0.51751721 -0.27275831 0.61000013 1.0879084e-38
0.52250779 -0.27239329 0.61046058 1.0233715e-38
0.52575827 -0.27243465 0.61158133 7.5604018e-39
0.72166759 -0.27241784 0.61000007 1.097128e-38
0.72733384 -0.27244741 0.61000001 1.097128e-38
0.73880124 -0.27250719 0.61000007 1.097128e-38
0.74249017 -0.27287596 0.61000001 1.097128e-38
0.74805737 -0.27246788 0.61000007 1.097128e-38
0.75743073 -0.2724275 0.61000013 1.097128e-38
0.76556319 -0.27211353 0.61000001 1.097128e-38
0.77378666 -0.27277863 0.61000001 1.097128e-38
0.78489572 -0.27202716 0.61000001 1.097128e-38
0.78769922 -0.2725814 0.61000001 1.097128e-38
0.80474424 -0.27294159 0.61000001 1.097128e-38
0.80762315 -0.27249992 0.61000001 1.097128e-38
0.81051308 -0.27205649 0.61000001 1.097128e-38
0.82660842 -0.27416727 0.61000001 1.097128e-38
0.85522759 -0.27245337 0.61000001 1.097128e-38
0.33244187 -0.2674371 0.61000001 1.0879084e-38
0.33775178 -0.26739886 0.61000007 1.0879084e-38
0.3426885 -0.26757127 0.61000007 1.0879084e-38
0.34756011 -0.26747259 0.61000007 1.0879084e-38
0.35244977 -0.26746759 0.61000007 1.0879084e-38
0.357474 -0.26754522 0.61000013 1.0879084e-38
0.36239502 -0.26736191 0.61000007 1.0879084e-38
0.3675147 -0.26743978 0.61000007 1.0879084e-38
0.37254301 -0.26749197 0.61000007 1.0879084e-38
0.37758607 -0.26750773 0.61000007 1.0879084e-38
0.38287264 -0.26738447 0.61000007 1.0879084e-38
0.38706031 -0.26763096 0.61000013 1.0879084e-38
0.39249372 -0.26732594 0.61000007 1.0879084e-38
0.39767227 -0.26752341 0.61000013 1.0879084e-38
0.40229771 -0.26751092 0.61000007 1.0879084e-38
0.40708965 -0.26749095 0.61000007 1.0879084e-38
0.41256759 -0.26743603 0.61000007 1.0879084e-38
0.41809741 -0.26737997 0.61000007 1.0879084e-38
0.42304254 -0.2676087 0.61000007 1.0879084e-38
0.42786974 -0.26734629 0.61000007 1.0879084e-38
0.43241262 -0.26760286 0.61000007 1.0879084e-38
0.43732071 -0.26733822 0.61000007 1.0879084e-38
0.44243693 -0.26757008 0.61000013 1.0879084e-38
0.44743234 -0.26730293 0.61000007 1.0879084e-38
0.45264038 -0.26753733 0.61000007 1.0879084e-38
0.45755509 -0.26753446 0.61000007 1.0879084e-38
0.46251196 -0.26753077 0.61000007 1.0879084e-38
0.46768445 -0.26725873 0.61000007 1.0879084e-38
0.4730776 -0.26749641 0.61000007 1.0879084e-38
0.47658214 -0.2675755 0.61000001 1.0879084e-38
0.48188242 -0.26730081 0.61000007 1.0879084e-38
0.48704976 -0.26729602 0.61000007 1.0879084e-38
0.49262333 -0.26753777 0.61000007 1.0879084e-38
0.49806759 -0.26752508 0.61000007 1.0879084e-38
0.50706691 -0.26733452 0.61000007 1.0879084e-38
0.51283032 -0.26731092 0.61000007 1.0879084e-38
0.51751727 -0.26788628 0.61000013 1.0879084e-38
0.52224296 -0.26737899 0.61000007 1.0879084e-38
0.52672809 -0.26752889 0.6104126 9.6805411e-39
0.72192425 -0.26716211 0.61000007 1.097128e-38
0.72681677 -0.26777452 0.61000001 1.097128e-38
0.73880124 -0.26771066 0.61000007 1.097128e-38
0.74275428 -0.26754346 0.61000007 1.097128e-38
0.74832356 -0.26711386 0.61000001 1.097128e-38
0.75743073 -0.26756892 0.61000013 1.097128e-38
0.76556319 -0.26722792 0.61000001 1.097128e-38
0.77378672 -0.26786566 0.61000001 1.097128e-38
0.78489572 -0.26707718 0.61000001 1.097128e-38
0.78769922 -0.26762208 0.61000001 1.097128e-38
0.80474424 -0.26993203 0.61000001 1.097128e-38
0.81051308 -0.2670213 0.61000001 1.097128e-38
0.85522765 -0.26726934 0.61000001 1.097128e-38
0.3323068 -0.26244006 0.61000007 1.0879084e-38
0.33775228 -0.26255241 0.61000007 1.0879084e-38
0.34256312 -0.26247761 0.61000007 1.0879084e-38
0.34742108 -0.26240256 0.61000007 1.0879084e-38
0.35218126 -0.26256955 0.61000007 1.0879084e-38
0.35706812 -0.26259869 0.61000007 1.0879084e-38
0.36212137 -0.2624177 0.61000007 1.0879084e-38
0.36710116 -0.2624464 0.61000007 1.0879084e-38
0.37226394 -0.26250064 0.61000007 1.0879084e-38
0.37747985 -0.26247361 0.61000007 1.0879084e-38
0.38258818 -0.26234528 0.61000007 1.0879084e-38
0.38734686 -0.26253739 0.61000013 1.0879084e-38
0.39255157 -0.26240772 0.61000007 1.0879084e-38
0.39797848 -0.26262346 0.61000007 1.0879084e-38
0.40259266 -0.26234597 0.61000007 1.0879084e-38
0.40693426 -0.26257721 0.61000007 1.0879084e-38
0.41238657 -0.2624234 0.61000007 1.0879084e-38
0.4179388 -0.2624175 0.61000007 1.0879084e-38
0.42288214 -0.2626237 0.61000007 1.0879084e-38
0.42770797 -0.26233992 0.61000007 1.0879084e-38
0.43273848 -0.26254815 0.61000007 1.0879084e-38
0.43748495 -0.26252449 0.61000007 1.0879084e-38
0.44227138 -0.26249978 0.61000007 1.0879084e-38
0.4472653 -0.26221061 0.61000007 1.0879084e-38
0.45247149 -0.26242122 0.61000007 1.0879084e-38
0.45772538 -0.26263446 0.61000007 1.0879084e-38
0.46268356 -0.26261058 0.61000007 1.0879084e-38
0.46785763 -0.2623167 0.61000007 1.0879084e-38
0.4729031 -0.26229048 0.61000007 1.0879084e-38
0.47658214 -0.26286694 0.61000001 1.0879084e-38
0.48188242 -0.26257107 0.61000007 1.0879084e-38
0.48722872 -0.26227215 0.61000007 1.0879084e-38
0.49262354 -0.26249999 0.61000007 1.0879084e-38
0.49806738 -0.2624644 0.61000007 1.0879084e-38
0.50725198 -0.26222613 0.61000007 1.0879084e-38
0.51283032 -0.26245758 0.61000013 1.0879084e-38
0.51751727 -0.26301423 0.61000013 1.0879084e-38
0.5222429 -0.2624881 0.61000007 1.0879084e-38
0.52700287 -0.26195729 0.61000007 1.0879084e-38
0.72192419 -0.26242176 0.61000007 1.097128e-38
0.72707534 -0.26249894 0.61000007 1.097128e-38
0.73880124 -0.26291412 0.61000007 1.097128e-38
0.74301851 -0.26220813 0.61000001 1.097128e-38
0.74779123 -0.2623744 0.61000001 1.097128e-38
0.76556319 -0.26331943 0.61000001 1.097128e-38
0.77378666 -0.26393527 0.61000001 1.097128e-38
0.78489572 -0.26212725 0.61000001 1.097128e-38
0.78769922 -0.26266283 0.61000001 1.097128e-38
0.81051308 -0.26198608 0.61000001 1.097128e-38
0.85522759 -0.26208529 0.61000001 1.097128e-38
0.33217102 -0.25744507 0.61000001 1.0879084e-38
0.33761507 -0.25753111 0.61000007 1.0879084e-38
0.34243739 -0.25738585 0.61000007 1.0879084e-38
0.34742048 -0.25751117 0.61000007 1.0879084e-38
0.35244972 -0.2576378 0.61000007 1.0879084e-38
0.35741299 -0.25749144 0.61000007 1.0879084e-38
0.36239502 -0.25743943 0.61000007 1.0879084e-38
0.3675147 -0.25746959 0.61000007 1.0879084e-38
0.37254301 -0.25747493 0.61000007 1.0879084e-38
0.37753701 -0.25762275 0.61000007 1.0879084e-38
0.38287267 -0.2572712 0.61000007 1.0879084e-38
0.3874611 -0.25825766 0.61000007 1.0879084e-38
0.39227679 -0.25748438 0.61000007 1.0879084e-38
0.39768609 -0.2575154 0.61000007 1.0879084e-38
0.40243801 -0.25745231 0.61000007 1.0879084e-38
0.4072457 -0.25763458 0.61000007 1.0879084e-38
0.41279247 -0.25742057 0.61000007 1.0879084e-38
0.41825643 -0.25742581 0.61000007 1.0879084e-38
0.42272219 -0.25764069 0.61000007 1.0879084e-38
0.42754665 -0.2573356 0.61000007 1.0879084e-38
0.43257532 -0.25752094 0.61000007 1.0879084e-38
0.43764943 -0.25770852 0.61000007 1.0879084e-38
0.44260296 -0.25739965 0.61000007 1.0879084e-38
0.44743246 -0.25735408 0.61000007 1.0879084e-38
0.45230299 -0.25730726 0.61000007 1.0879084e-38
0.45755491 -0.25749654 0.61000007 1.0879084e-38
0.46285534 -0.25768819 0.61000007 1.0879084e-38
0.46785757 -0.25764295 0.61000007 1.0879084e-38
0.47307777 -0.25732559 0.61000007 1.0879084e-38
0.47658214 -0.25737363 0.61000001 1.0879084e-38
0.48205987 -0.25756755 0.61000007 1.0879084e-38
0.48722872 -0.25752106 0.61000007 1.0879084e-38
0.492443 -0.25747341 0.61000007 1.0879084e-38
0.49806759 -0.25740364 0.61000007 1.0879084e-38
0.50725198 -0.25739512 0.61000007 1.0879084e-38
0.51264364 -0.25734597 0.61000007 1.0879084e-38
0.51765168 -0.25770873 0.61000013 1.0879084e-38
0.5222429 -0.25759718 0.61000007 1.0879084e-38
0.52696973 -0.25726989 0.61148214 7.9291843e-39
0.72192425 -0.2576814 0.61000007 1.097128e-38
0.72733384 -0.2572206 0.61000001 1.097128e-38
0.73880124 -0.25715828 0.61000007 1.097128e-38
0.74249017 -0.25748777 0.61000001 1.097128e-38
0.74832356 -0.25745744 0.61000001 1.097128e-38
0.78489572 -0.25717729 0.61000001 1.097128e-38
0.78769922 -0.25770351 0.61000001 1.097128e-38
0.81051308 -0.25795791 0.61000001 1.097128e-38
0.85522759 -0.25793806 0.61000001 1.097128e-38
0.33249998 -0.25245601 0.61000007 1.0879084e-38
0.33794752 -0.25251585 0.61000007 1.0879084e-38
0.34270117 -0.25249836 0.61000007 1.0879084e-38
0.34746736 -0.25244534 0.61000007 1.0879084e-38
0.35232201 -0.25249779 0.61000007 1.0879084e-38
0.35727137 -0.25237513 0.61000013 1.0879084e-38
0.3621214 -0.25249782 0.61000007 1.0879084e-38
0.36710116 -0.25248012 0.61000007 1.0879084e-38
0.37226391 -0.25248623 0.61000007 1.0879084e-38
0.37753651 -0.25259104 0.61000013 1.0879084e-38
0.38272354 -0.25246555 0.61000007 1.0879084e-38
0.388713 -0.25252864 0.61000001 1.0879084e-38
0.39271006 -0.25238839 0.61000007 1.0879084e-38
0.39797854 -0.25236937 0.61000007 1.0879084e-38
0.40228382 -0.25256056 0.61000007 1.0879084e-38
0.40694827 -0.25248486 0.61000007 1.0879084e-38
0.41250724 -0.25240678 0.61000007 1.0879084e-38
0.41809741 -0.25246346 0.61000007 1.0879084e-38
0.42304254 -0.25262633 0.61000007 1.0879084e-38
0.42770812 -0.25256169 0.61000007 1.0879084e-38
0.43241262 -0.2524958 0.61000007 1.0879084e-38
0.43748483 -0.25266024 0.61000007 1.0879084e-38
0.44243693 -0.2523295 0.61000007 1.0879084e-38
0.44759974 -0.25249535 0.61000007 1.0879084e-38
0.45247167 -0.25242877 0.61000007 1.0879084e-38
0.457385 -0.25236079 0.61000007 1.0879084e-38
0.46268338 -0.25252825 0.61000007 1.0879084e-38
0.46803087 -0.25269794 0.61000007 1.0879084e-38
0.47307777 -0.25263107 0.61000007 1.0879084e-38
0.47658214 -0.25188035 0.61000001 1.0879084e-38
0.48188236 -0.25258535 0.61000007 1.0879084e-38
0.48740783 -0.25249416 0.61000007 1.0879084e-38
0.49262354 -0.25242528 0.61000007 1.0879084e-38
0.49788541 -0.25235495 0.61000007 1.0879084e-38
0.50725192 -0.25256401 0.61000007 1.0879084e-38
0.51283032 -0.25221249 0.61000007 1.0879084e-38
0.51751715 -0.25245753 0.61000013 1.0879084e-38
0.5222429 -0.25270626 0.61000007 1.0879084e-38
0.52707189 -0.2525132 0.61051083 9.4961499e-39
0.72320729 -0.25223979 0.61000007 1.097128e-38
0.72681683 -0.25255328 0.61000001 1.097128e-38
0.73880124 -0.25236174 0.61000007 1.097128e-38
0.74301851 -0.25258699 0.61000001 1.097128e-38
0.74779123 -0.25272149 0.61000001 1.097128e-38
0.78489572 -0.25222734 0.61000001 1.097128e-38
0.78769922 -0.25274426 0.61000001 1.097128e-38
0.81051308 -0.25292268 0.61000001 1.097128e-38
0.81810242 -0.25365785 0.61488426 1.097128e-38
0.85522765 -0.252754 0.61000001 1.097128e-38
0.33226153 -0.24746004 0.61000001 1.0879084e-38
0.33770654 -0.24749357 0.61000007 1.0879084e-38
0.34243739 -0.24764942 0.61000007 1.0879084e-38
0.34722164 -0.24737786 0.61000007 1.0879084e-38
0.35219392 -0.24735969 0.61000007 1.0879084e-38
0.35727081 -0.24743783 0.61000007 1.0879084e-38
0.36239502 -0.24751697 0.61000007 1.0879084e-38
0.36751467 -0.24749945 0.61000007 1.0879084e-38
0.37254301 -0.24745786 0.61000007 1.0879084e-38
0.37753704 -0.24755917 0.61000007 1.0879084e-38
0.3825748 -0.24766175 0.61000007 1.0879084e-38
0.388713 -0.24744476 0.61000001 1.0879084e-38
0.39243495 -0.24746619 0.61000007 1.0879084e-38
0.39782518 -0.24749748 0.61000007 1.0879084e-38
0.40259266 -0.24763589 0.61000007 1.0879084e-38
0.40708986 -0.24755213 0.61000007 1.0879084e-38
0.4123866 -0.2475829 0.61000007 1.0879084e-38
0.4179388 -0.24750309 0.61000007 1.0879084e-38
0.42273661 -0.24740466 0.61000007 1.0879084e-38
0.42785493 -0.24753599 0.61000007 1.0879084e-38
0.43273848 -0.24743672 0.61000007 1.0879084e-38
0.43732071 -0.24761406 0.61000007 1.0879084e-38
0.44227138 -0.24726143 0.61000007 1.0879084e-38
0.44743228 -0.24740374 0.61000007 1.0879084e-38
0.45264044 -0.24754798 0.61000007 1.0879084e-38
0.45755509 -0.24746005 0.61000007 1.0879084e-38
0.46251193 -0.24737057 0.61000013 1.0879084e-38
0.46785742 -0.24751592 0.61000007 1.0879084e-38
0.47325262 -0.24766326 0.61000007 1.0879084e-38
0.47658214 -0.2471718 0.61000001 1.0879084e-38
0.48188224 -0.2475929 0.61000007 1.0879084e-38
0.48722872 -0.24749024 0.61000007 1.0879084e-38
0.49262354 -0.24765266 0.61000007 1.0879084e-38
0.49806759 -0.24728304 0.61000007 1.0879084e-38
0.50725198 -0.24773298 0.61000007 1.0879084e-38
0.51283038 -0.2473592 0.61000007 1.0879084e-38
0.51657599 -0.24981223 0.61000013 1.0879084e-38
0.5222429 -0.24781534 0.61000007 1.0879084e-38
0.52700287 -0.2472275 0.61000007 1.0879084e-38
0.72320729 -0.24749516 0.61000007 1.097128e-38
0.72681683 -0.24760716 0.61000001 1.097128e-38
0.73880124 -0.24948384 0.61000007 1.097128e-38
0.74319464 -0.24838586 0.61000001 1.097128e-38
0.74938804 -0.24761282 0.61000001 1.097128e-38
0.78489572 -0.24727738 0.61000001 1.097128e-38
0.78769922 -0.24778497 0.61000001 1.097128e-38
0.809569 -0.24512713 0.61049402 1.097128e-38
0.81051308 -0.24788748 0.61000001 1.097128e-38
0.85522759 -0.24756998 0.61000001 1.097128e-38
0.3323063 -0.24246725 0.61000007 1.0879084e-38
0.33775178 -0.24247453 0.61000007 1.0879084e-38
0.34268853 -0.24252862 0.61000007 1.0879084e-38
0.34761995 -0.24248786 0.61000007 1.0879084e-38
0.35246268 -0.24242397 0.61000007 1.0879084e-38
0.35727134 -0.24250044 0.61000007 1.0879084e-38
0.3621214 -0.24257788 0.61000007 1.0879084e-38
0.36710116 -0.24251381 0.61000007 1.0879084e-38
0.37226394 -0.24247178 0.61000007 1.0879084e-38
0.37753645 -0.2425275 0.61000013 1.0879084e-38
0.38285905 -0.2425839 0.61000007 1.0879084e-38
0.388713 -0.2423609 0.61000001 1.0879084e-38
0.39249372 -0.2425473 0.61000007 1.0879084e-38
0.3976723 -0.24262758 0.61000007 1.0879084e-38
0.40246117 -0.24271195 0.61027056 1.0879084e-38
0.40723136 -0.2426175 0.61000007 1.0879084e-38
0.4127925 -0.24257468 0.61000007 1.0879084e-38
0.41825643 -0.24250714 0.61000007 1.0879084e-38
0.42288229 -0.24240105 0.61000007 1.0879084e-38
0.42754668 -0.24229331 0.61000007 1.0879084e-38
0.43257532 -0.24241166 0.61000007 1.0879084e-38
0.4376494 -0.2425317 0.61000007 1.0879084e-38
0.44243711 -0.24242383 0.61000013 1.0879084e-38
0.4472653 -0.24231426 0.61000007 1.0879084e-38
0.45247149 -0.24243483 0.61000007 1.0879084e-38
0.45772538 -0.24255709 0.61000007 1.0879084e-38
0.46268353 -0.24244744 0.61000007 1.0879084e-38
0.46768445 -0.24233603 0.61000007 1.0879084e-38
0.4730776 -0.24245882 0.61000007 1.0879084e-38
0.47658214 -0.24246325 0.61000001 1.0879084e-38
0.4817051 -0.24235098 0.61000007 1.0879084e-38
0.48722854 -0.2424753 0.61000007 1.0879084e-38
0.49280429 -0.24260144 0.61000007 1.0879084e-38
0.49806759 -0.24248868 0.61000007 1.0879084e-38
0.50743711 -0.24261996 0.61000007 1.0879084e-38
0.51283038 -0.24250589 0.61000007 1.0879084e-38
0.52243274 -0.24263892 0.61000007 1.0879084e-38
0.52769297 -0.24219435 0.61135447 7.467846e-39
0.72320741 -0.24275054 0.61000001 1.097128e-38
0.72578293 -0.24227823 0.61000001 1.097128e-38
0.7440753 -0.24470051 0.61000001 1.097128e-38
0.74938804 -0.24278104 0.61000001 1.097128e-38
0.78489572 -0.24232744 0.61000001 1.097128e-38
0.78769922 -0.24282569 0.61000001 1.097128e-38
0.81051308 -0.24285227 0.61000001 1.097128e-38
0.85522765 -0.24238594 0.61000001 1.097128e-38
0.33235177 -0.23747374 0.61000001 1.0879084e-38
0.33779776 -0.2374547 0.61000007 1.0879084e-38
0.34242493 -0.23768218 0.61000007 1.0879084e-38
0.34722164 -0.23759679 0.61000007 1.0879084e-38
0.35219386 -0.23753227 0.61000007 1.0879084e-38
0.35727078 -0.23756315 0.61000007 1.0879084e-38
0.36239502 -0.23759454 0.61000007 1.0879084e-38
0.3675147 -0.23752931 0.61000007 1.0879084e-38
0.37254304 -0.23744085 0.61000007 1.0879084e-38
0.37753704 -0.23749562 0.61000007 1.0879084e-38
0.3825748 -0.23755124 0.61000007 1.0879084e-38
0.388713 -0.23727705 0.61000001 1.0879084e-38
0.3924931 -0.23744591 0.61000007 1.0879084e-38
0.39796448 -0.23747773 0.61000007 1.0879084e-38
0.40259266 -0.23733883 0.61000007 1.0879084e-38
0.40693426 -0.23747177 0.61000007 1.0879084e-38
0.41250724 -0.23756471 0.61000007 1.0879084e-38
0.41809741 -0.23754689 0.61000007 1.0879084e-38
0.42304254 -0.23764396 0.61000007 1.0879084e-38
0.42770809 -0.23751722 0.61000007 1.0879084e-38
0.43241262 -0.23738869 0.61000007 1.0879084e-38
0.43748483 -0.2374856 0.61000007 1.0879084e-38
0.44260296 -0.23758404 0.61000007 1.0879084e-38
0.44743246 -0.23745486 0.61000007 1.0879084e-38
0.45230302 -0.23732379 0.61000007 1.0879084e-38
0.45755497 -0.23742214 0.61000007 1.0879084e-38
0.46285534 -0.23752204 0.61000007 1.0879084e-38
0.46785763 -0.23739031 0.61000007 1.0879084e-38
0.47290307 -0.23725657 0.61000007 1.0879084e-38
0.47658214 -0.2377547 0.61000001 1.0879084e-38
0.48188236 -0.23734596 0.61000007 1.0879084e-38
0.48722872 -0.23746024 0.61000007 1.0879084e-38
0.4926236 -0.23757635 0.61000007 1.0879084e-38
0.49806759 -0.23769432 0.61000007 1.0879084e-38
0.50725198 -0.23753333 0.61000007 1.0879084e-38
0.51283038 -0.23765257 0.61000007 1.0879084e-38
0.52224296 -0.23748925 0.61000007 1.0879084e-38
0.52700287 -0.23740762 0.61000007 1.0879084e-38
0.72320741 -0.23705699 0.61000001 1.097128e-38
0.72578293 -0.23752503 0.61000001 1.097128e-38
0.74938804 -0.23794927 0.61000001 1.097128e-38
0.78489572 -0.23737746 0.61000001 1.097128e-38
0.78769922 -0.2378664 0.61000001 1.097128e-38
0.81051308 -0.23781705 0.61000001 1.097128e-38
0.83865917 -0.23675533 0.61335379 1.097128e-38
0.85522759 -0.2372019 0.61000001 1.097128e-38
0.33211309 -0.23248267 0.61000007 1.0879084e-38
0.33755651 -0.23243734 0.61000013 1.0879084e-38
0.342563 -0.2325698 0.61000007 1.0879084e-38
0.34756014 -0.23252898 0.61000001 1.0879084e-38
0.35244977 -0.23236126 0.61000007 1.0879084e-38
0.35727134 -0.23262569 0.61000013 1.0879084e-38
0.3621214 -0.232658 0.61000007 1.0879084e-38
0.36710116 -0.23254748 0.61000007 1.0879084e-38
0.37226391 -0.23245734 0.61000007 1.0879084e-38
0.37753651 -0.23246388 0.61000013 1.0879084e-38
0.38285902 -0.23247075 0.61000007 1.0879084e-38
0.388713 -0.23219317 0.61000001 1.0879084e-38
0.39231858 -0.23252834 0.61000007 1.0879084e-38
0.3976723 -0.23237637 0.61000013 1.0879084e-38
0.40243801 -0.23244862 0.61000007 1.0879084e-38
0.4072457 -0.23252213 0.61000007 1.0879084e-38
0.41256818 -0.23255506 0.61000007 1.0879084e-38
0.4179388 -0.23258868 0.61000007 1.0879084e-38
0.42273656 -0.23242635 0.61000007 1.0879084e-38
0.42786974 -0.23273905 0.61000007 1.0879084e-38
0.43257549 -0.23259132 0.61000007 1.0879084e-38
0.43732071 -0.23244162 0.61000007 1.0879084e-38
0.44262105 -0.23264217 0.61000007 1.0879084e-38
0.4475998 -0.23259322 0.61000007 1.0879084e-38
0.45247167 -0.23244235 0.61000007 1.0879084e-38
0.45738497 -0.23228934 0.61000007 1.0879084e-38
0.46268344 -0.23236516 0.61000007 1.0879084e-38
0.46785763 -0.23271659 0.61000007 1.0879084e-38
0.47307777 -0.23228802 0.61000007 1.0879084e-38
0.47658214 -0.23304616 0.61000001 1.0879084e-38
0.48188242 -0.23261625 0.61000007 1.0879084e-38
0.48704982 -0.2324601 0.61000007 1.0879084e-38
0.49262342 -0.23253863 0.61000007 1.0879084e-38
0.49825001 -0.2326186 0.61000007 1.0879084e-38
0.50725174 -0.23243394 0.61000007 1.0879084e-38
0.51283038 -0.23279923 0.61000007 1.0879084e-38
0.52224296 -0.23259833 0.61000007 1.0879084e-38
0.52700287 -0.23249774 0.61000007 1.0879084e-38
0.53201389 -0.23221987 0.61254776 4.2413605e-39
0.72320741 -0.23231235 0.61000001 1.097128e-38
0.72578293 -0.23277183 0.61000001 1.097128e-38
0.74938804 -0.23215117 0.61000001 1.097128e-38
0.77591765 -0.23242836 0.61155516 1.097128e-38
0.78489572 -0.23242752 0.61000001 1.097128e-38
0.78769922 -0.23290712 0.61000001 1.097128e-38
0.81051308 -0.23278183 0.61000001 1.097128e-38
0.85522759 -0.23305467 0.61000001 1.097128e-38
0.33244184 -0.22748621 0.61000001 1.0879084e-38
0.33788875 -0.22741458 0.61000001 1.0879084e-38
0.34270117 -0.22745541 0.61000007 1.0879084e-38
0.34742111 -0.22746359 0.61000007 1.0879084e-38
0.35218126 -0.22747214 0.61000007 1.0879084e-38
0.35712889 -0.22751424 0.61000001 1.0879084e-38
0.36239502 -0.22767209 0.61000007 1.0879084e-38
0.3675147 -0.22755912 0.61000007 1.0879084e-38
0.37254304 -0.22742382 0.61000007 1.0879084e-38
0.37753704 -0.22743206 0.61000007 1.0879084e-38
0.3825748 -0.22744069 0.61000007 1.0879084e-38
0.388713 -0.22710931 0.61000001 1.0879084e-38
0.39271006 -0.22760491 0.61000007 1.0879084e-38
0.39797848 -0.22746663 0.61000007 1.0879084e-38
0.40228385 -0.2275604 0.61000007 1.0879084e-38
0.40694821 -0.22737913 0.61000007 1.0879084e-38
0.41262814 -0.22754478 0.61000007 1.0879084e-38
0.41825643 -0.22758856 0.61000007 1.0879084e-38
0.42288229 -0.22742084 0.61000007 1.0879084e-38
0.42756116 -0.22750038 0.61000007 1.0879084e-38
0.43272352 -0.22754134 0.61000007 1.0879084e-38
0.43748498 -0.22762281 0.61000007 1.0879084e-38
0.44326568 -0.22736365 0.61000007 1.0879084e-38
0.44743228 -0.22750457 0.61000007 1.0879084e-38
0.45264038 -0.22755869 0.61000007 1.0879084e-38
0.45755509 -0.22738568 0.61000007 1.0879084e-38
0.46251196 -0.2272104 0.61000007 1.0879084e-38
0.46803093 -0.2277679 0.61000007 1.0879084e-38
0.47307777 -0.2275935 0.61000007 1.0879084e-38
0.47658214 -0.22755286 0.61000001 1.0879084e-38
0.4820599 -0.2276082 0.61000007 1.0879084e-38
0.48722872 -0.227431 0.61000007 1.0879084e-38
0.49244308 -0.22725146 0.61000007 1.0879084e-38
0.49806759 -0.2275721 0.61000007 1.0879084e-38
0.50725198 -0.22733447 0.61000007 1.0879084e-38
0.5130173 -0.22766033 0.61000007 1.0879084e-38
0.52224296 -0.22770745 0.61000007 1.0879084e-38
0.52700287 -0.2275878 0.61000007 1.0879084e-38
0.53346908 -0.22704831 0.61110198 8.9433376e-39
0.72320741 -0.22756773 0.61000001 1.097128e-38
0.72578293 -0.22801863 0.61000001 1.097128e-38
0.74938804 -0.22731939 0.61000001 1.097128e-38
0.78489572 -0.22747758 0.61000001 1.097128e-38
0.78769922 -0.22794783 0.61000001 1.097128e-38
0.81051308 -0.22774662 0.61000001 1.097128e-38
0.85522765 -0.22787063 0.61000001 1.097128e-38
0.3323068 -0.22249439 0.61000007 1.0879084e-38
0.33775228 -0.22239651 0.61000013 1.0879084e-38
0.34243739 -0.22261277 0.61000007 1.0879084e-38
0.34742054 -0.22257219 0.61000007 1.0879084e-38
0.35244977 -0.22253142 0.61000007 1.0879084e-38
0.357474 -0.22239505 0.61000007 1.0879084e-38
0.3621214 -0.22273807 0.61000007 1.0879084e-38
0.36710116 -0.22258119 0.61000007 1.0879084e-38
0.37226394 -0.22244292 0.61000007 1.0879084e-38
0.37753648 -0.22240032 0.61000007 1.0879084e-38
0.38287273 -0.22259703 0.61000007 1.0879084e-38
0.388713 -0.22275174 0.61000001 1.0879084e-38
0.39227682 -0.22250979 0.61000007 1.0879084e-38
0.39765543 -0.22264212 0.61000007 1.0879084e-38
0.40259266 -0.22262871 0.61000007 1.0879084e-38
0.40708989 -0.22244318 0.61000007 1.0879084e-38
0.41234323 -0.22254014 0.61000007 1.0879084e-38
0.4179531 -0.22239588 0.61000007 1.0879084e-38
0.42304254 -0.22266164 0.61000007 1.0879084e-38
0.42770815 -0.22247274 0.61000007 1.0879084e-38
0.43241268 -0.22228158 0.61000007 1.0879084e-38
0.43763435 -0.22255035 0.61000007 1.0879084e-38
0.44326568 -0.22278817 0.61000007 1.0879084e-38
0.4472653 -0.22241803 0.61000007 1.0879084e-38
0.45247149 -0.22244844 0.61000007 1.0879084e-38
0.45772538 -0.22247978 0.61000007 1.0879084e-38
0.46268356 -0.22228432 0.61000007 1.0879084e-38
0.46785745 -0.22258954 0.61000007 1.0879084e-38
0.47325262 -0.22262196 0.61000007 1.0879084e-38
0.47658214 -0.22205956 0.61000001 1.0879084e-38
0.48188218 -0.22236779 0.61000007 1.0879084e-38
0.48722872 -0.22267996 0.61000007 1.0879084e-38
0.4926236 -0.22219874 0.61000007 1.0879084e-38
0.49806738 -0.22251144 0.61000007 1.0879084e-38
0.50725198 -0.22250345 0.61000007 1.0879084e-38
0.51283032 -0.22255254 0.61000007 1.0879084e-38
0.52224278 -0.22254482 0.61000007 1.0879084e-38
0.52700287 -0.22267789 0.61000007 1.0879084e-38
0.53389698 -0.22300678 0.61118501 6.1771086e-39
0.5354479 -0.22100392 0.61032277 0
0.72320741 -0.22282308 0.61000001 1.097128e-38
0.72578293 -0.22231477 0.61000001 1.097128e-38
0.74938804 -0.22248761 0.61000001 1.097128e-38
0.78489572 -0.22252762 0.61000001 1.097128e-38
0.78769922 -0.22298855 0.61000001 1.097128e-38
0.81051308 -0.2227114 0.61000001 1.097128e-38
0.85522759 -0.22268659 0.61000001 1.097128e-38
0.33217096 -0.21750467 0.61000001 1.0879084e-38
0.33761504 -0.21738051 0.61000001 1.0879084e-38
0.34268853 -0.21748596 0.61000007 1.0879084e-38
0.34746745 -0.21750481 0.61000001 1.0879084e-38
0.35218126 -0.21764484 0.61000007 1.0879084e-38
0.35706821 -0.2174658 0.61000013 1.0879084e-38
0.36226472 -0.21752729 0.61000007 1.0879084e-38
0.36751467 -0.21758895 0.61000007 1.0879084e-38
0.37254301 -0.21740679 0.61000007 1.0879084e-38
0.37729201 -0.21795331 0.61000007 1.0879084e-38
0.38258821 -0.21756957 0.61000007 1.0879084e-38
0.388713 -0.21766786 0.61000001 1.0879084e-38
0.39271003 -0.21739995 0.61000007 1.0879084e-38
0.39782611 -0.21747272 0.61000007 1.0879084e-38
0.40229771 -0.21750993 0.61000007 1.0879084e-38
0.40723136 -0.21750532 0.61000007 1.0879084e-38
0.41274944 -0.2175232 0.61000007 1.0879084e-38
0.41809756 -0.2174103 0.61000007 1.0879084e-38
0.42273661 -0.21744809 0.61000007 1.0879084e-38
0.42786971 -0.2176924 0.61000007 1.0879084e-38
0.43257549 -0.21748203 0.61000007 1.0879084e-38
0.43732071 -0.21726915 0.61000007 1.0879084e-38
0.44338426 -0.21780147 0.61000007 1.0879084e-38
0.44743246 -0.21755567 0.61000007 1.0879084e-38
0.45230302 -0.21734032 0.61000007 1.0879084e-38
0.45755497 -0.21734777 0.61000007 1.0879084e-38
0.46268362 -0.21763127 0.61000007 1.0879084e-38
0.46768445 -0.21741335 0.61000007 1.0879084e-38
0.4730776 -0.21742122 0.61000007 1.0879084e-38
0.47658214 -0.21735102 0.61000001 1.0879084e-38
0.48188242 -0.21737526 0.61000007 1.0879084e-38
0.48740783 -0.21764779 0.61000007 1.0879084e-38
0.49262366 -0.21742614 0.61000007 1.0879084e-38
0.49806759 -0.21745068 0.61000007 1.0879084e-38
0.50706691 -0.21742146 0.61000007 1.0879084e-38
0.51283014 -0.21742967 0.61000007 1.0879084e-38
0.5222429 -0.21738219 0.61000007 1.0879084e-38
0.52700287 -0.21776795 0.61000007 1.0879084e-38
0.53395271 -0.21768925 0.61110067 8.851142e-39
0.53566301 -0.21727233 0.61114919 7.2834562e-39
0.54063225 -0.2195299 0.61141241 1.0879084e-38
0.72218096 -0.2175267 0.61000001 1.097128e-38
0.72578293 -0.21756157 0.61000001 1.097128e-38
0.74938804 -0.21765584 0.61000001 1.097128e-38
0.78489572 -0.21757767 0.61000001 1.097128e-38
0.78769922 -0.21703742 0.61000001 1.097128e-38
0.81051308 -0.21767619 0.61000001 1.097128e-38
0.85522765 -0.21750255 0.61000001 1.097128e-38
0.33250001 -0.21250285 0.61000007 1.0879084e-38
0.33794755 -0.21235241 0.61000013 1.0879084e-38
0.34242493 -0.21264586 0.61000007 1.0879084e-38
0.34722167 -0.21244553 0.61000007 1.0879084e-38
0.35232186 -0.21248204 0.61000007 1.0879084e-38
0.35786259 -0.21265465 0.61000007 1.0879084e-38
0.36240816 -0.21231441 0.61000007 1.0879084e-38
0.36710119 -0.21261482 0.61000007 1.0879084e-38
0.37226394 -0.21242853 0.61000007 1.0879084e-38
0.37785488 -0.21271396 0.61000007 1.0879084e-38
0.38287267 -0.21248372 0.61000007 1.0879084e-38
0.388713 -0.212584 0.61000001 1.0879084e-38
0.39243495 -0.21248652 0.61000007 1.0879084e-38
0.39804479 -0.21270642 0.61000007 1.0879084e-38
0.40243816 -0.21259342 0.61000007 1.0879084e-38
0.4069342 -0.21236634 0.61000007 1.0879084e-38
0.41256759 -0.21251726 0.61000007 1.0879084e-38
0.41825643 -0.21266992 0.61000007 1.0879084e-38
0.42288229 -0.21244058 0.61000007 1.0879084e-38
0.42756125 -0.21245788 0.61000007 1.0879084e-38
0.43273848 -0.21268038 0.61000007 1.0879084e-38
0.43748495 -0.21244818 0.61000007 1.0879084e-38
0.44314709 -0.21252325 0.61000007 1.0879084e-38
0.44759971 -0.21269116 0.61000007 1.0879084e-38
0.45247161 -0.21245594 0.61000007 1.0879084e-38
0.457385 -0.2122179 0.61000007 1.0879084e-38
0.46285534 -0.2127022 0.61000007 1.0879084e-38
0.46785763 -0.21246392 0.61000007 1.0879084e-38
0.47290307 -0.21222274 0.61000007 1.0879084e-38
0.47658214 -0.21264248 0.61000001 1.0879084e-38
0.48170504 -0.21240063 0.61000007 1.0879084e-38
0.48722854 -0.21238522 0.61000007 1.0879084e-38
0.4926236 -0.21265353 0.61000007 1.0879084e-38
0.49788532 -0.21240804 0.61000007 1.0879084e-38
0.50725192 -0.2123054 0.61000007 1.0879084e-38
0.51283038 -0.21230662 0.61000007 1.0879084e-38
0.52224284 -0.21249126 0.61000007 1.0879084e-38
0.52700281 -0.21285804 0.61000007 1.0879084e-38
0.53373027 -0.21249767 0.61000001 1.0879084e-38
0.53642672 -0.21295404 0.61031008 5.5317378e-39
0.7219243 -0.21217392 0.61000007 1.097128e-38
0.72578293 -0.21470964 0.61000001 1.097128e-38
0.74938804 -0.21282406 0.61000001 1.097128e-38
0.78489572 -0.21262771 0.61000001 1.097128e-38
0.78769922 -0.21207812 0.61000001 1.097128e-38
0.81051308 -0.21264096 0.61000001 1.097128e-38
0.85522759 -0.21231852 0.61000001 1.097128e-38
0.33226153 -0.20751615 0.61000001 1.0879084e-38
0.33731708 -0.2075727 0.61000007 1.0879084e-38
0.342563 -0.20753016 0.61000007 1.0879084e-38
0.34761998 -0.20754226 0.61000007 1.0879084e-38
0.35246262 -0.20731719 0.61000007 1.0879084e-38
0.35783848 -0.20763907 0.61000007 1.0879084e-38
0.36213431 -0.20738436 0.61000007 1.0879084e-38
0.3675147 -0.20761874 0.61000007 1.0879084e-38
0.37254304 -0.20738976 0.61000007 1.0879084e-38
0.37722263 -0.2076489 0.61000007 1.0879084e-38
0.38258821 -0.20745891 0.61000007 1.0879084e-38
0.38871297 -0.20750013 0.61000001 1.0879084e-38
0.3924937 -0.20756575 0.61000007 1.0879084e-38
0.39760733 -0.2075924 0.61000007 1.0879084e-38
0.40257844 -0.20767502 0.61000007 1.0879084e-38
0.40737104 -0.20729399 0.61017108 1.0879084e-38
0.41238657 -0.20751356 0.61000007 1.0879084e-38
0.4179531 -0.20748128 0.61000007 1.0879084e-38
0.42304254 -0.20767924 0.61000007 1.0879084e-38
0.42770812 -0.20742828 0.61000007 1.0879084e-38
0.43242729 -0.20742469 0.61000007 1.0879084e-38
0.4376494 -0.20762503 0.61000007 1.0879084e-38
0.44326565 -0.20753658 0.61000007 1.0879084e-38
0.44743222 -0.20760539 0.61000007 1.0879084e-38
0.45264044 -0.20756936 0.61000007 1.0879084e-38
0.45755509 -0.20731129 0.61000007 1.0879084e-38
0.46268338 -0.20754901 0.61000007 1.0879084e-38
0.46803093 -0.20751223 0.61000007 1.0879084e-38
0.47307783 -0.20725045 0.61000007 1.0879084e-38
0.47658214 -0.20793395 0.61000001 1.0879084e-38
0.48188236 -0.20739111 0.61000007 1.0879084e-38
0.48722872 -0.20737018 0.61000007 1.0879084e-38
0.49280429 -0.20759705 0.61000007 1.0879084e-38
0.49806753 -0.20733008 0.61000007 1.0879084e-38
0.50725198 -0.20747437 0.61000007 1.0879084e-38
0.51283032 -0.20745331 0.61000007 1.0879084e-38
0.5220533 -0.20734784 0.61000007 1.0879084e-38
0.52700287 -0.20794809 0.61000007 1.0879084e-38
0.53636926 -0.20836227 0.61010855 6.4536941e-39
0.71553636 -0.2054607 0.61000001 1.097128e-38
0.7206412 -0.20722687 0.61000001 1.097128e-38
0.74938804 -0.20702595 0.61000001 1.097128e-38
0.78489572 -0.20767775 0.61000001 1.097128e-38
0.78769922 -0.20711885 0.61000001 1.097128e-38
0.81051308 -0.20760575 0.61000001 1.097128e-38
0.33217099 -0.20235485 0.61000001 1.0879084e-38
0.33769029 -0.20249443 0.61000013 1.0879084e-38
0.3427012 -0.20241246 0.61000007 1.0879084e-38
0.3472217 -0.20266448 0.61000007 1.0879084e-38
0.35219392 -0.20243448 0.61000007 1.0879084e-38
0.35798061 -0.20244719 0.61000007 1.0879084e-38
0.36240816 -0.20239183 0.61000007 1.0879084e-38
0.36710116 -0.20264854 0.61000007 1.0879084e-38
0.37226391 -0.20241408 0.61000007 1.0879084e-38
0.37785488 -0.20264742 0.61000007 1.0879084e-38
0.38287267 -0.20237043 0.61000007 1.0879084e-38
0.38871297 -0.20241626 0.61000001 1.0879084e-38
0.39249316 -0.20246436 0.61000007 1.0879084e-38
0.39804482 -0.20245172 0.61000007 1.0879084e-38
0.40228382 -0.20256019 0.61000007 1.0879084e-38
0.40708971 -0.20250306 0.61000007 1.0879084e-38
0.41279241 -0.20249072 0.61000007 1.0879084e-38
0.41809756 -0.20249377 0.61000007 1.0879084e-38
0.42273661 -0.20246978 0.61000007 1.0879084e-38
0.4278698 -0.20264578 0.61000007 1.0879084e-38
0.43257549 -0.20237276 0.61000007 1.0879084e-38
0.43748483 -0.20258398 0.61000007 1.0879084e-38
0.44338423 -0.2025483 0.61000007 1.0879084e-38
0.44726524 -0.20252168 0.61000007 1.0879084e-38
0.45247144 -0.20246203 0.61000007 1.0879084e-38
0.45755509 -0.20267874 0.61000007 1.0879084e-38
0.46251193 -0.20239787 0.61000007 1.0879084e-38
0.46785745 -0.20233683 0.61000007 1.0879084e-38
0.47307777 -0.20255589 0.61000007 1.0879084e-38
0.47658211 -0.20244062 0.61000001 1.0879084e-38
0.48188236 -0.20266141 0.61000007 1.0879084e-38
0.48722872 -0.20261911 0.61000007 1.0879084e-38
0.4926236 -0.2025772 0.61000007 1.0879084e-38
0.49806753 -0.20253572 0.61000007 1.0879084e-38
0.50540197 -0.20229976 0.61000001 1.0879084e-38
0.5137639 -0.20223372 0.61000007 1.0879084e-38
0.5222429 -0.20216686 0.61000007 1.0879084e-38
0.52700281 -0.20303817 0.61000007 1.0879084e-38
0.53566623 -0.20297588 0.61000001 1.0879084e-38
0.71299767 -0.20128492 0.61000001 1.097128e-38
0.71553636 -0.20262924 0.61000001 1.097128e-38
0.7206412 -0.20249079 0.61000001 1.097128e-38
0.74938804 -0.20219417 0.61000001 1.097128e-38
0.78489572 -0.20272781 0.61000001 1.097128e-38
0.78769922 -0.20215955 0.61000001 1.097128e-38
0.81051308 -0.20458463 0.61000001 1.097128e-38
0.33249998 -0.19734825 0.61000007 1.0879084e-38
0.33756623 -0.19743267 0.61000007 1.0879084e-38
0.34243739 -0.19757614 0.61000007 1.0879084e-38
0.34756011 -0.19758539 0.61000001 1.0879084e-38
0.35246268 -0.19748731 0.61000007 1.0879084e-38
0.35798061 -0.19750655 0.61000007 1.0879084e-38
0.36213431 -0.19746436 0.61000007 1.0879084e-38
0.36745256 -0.19747321 0.61000001 1.0879084e-38
0.37254301 -0.1973727 0.61000007 1.0879084e-38
0.37722263 -0.19758828 0.61000007 1.0879084e-38
0.38258821 -0.19734827 0.61000007 1.0879084e-38
0.38871297 -0.19733241 0.61000001 1.0879084e-38
0.39231861 -0.19755235 0.61000007 1.0879084e-38
0.39760733 -0.19734178 0.61000007 1.0879084e-38
0.4025926 -0.19762154 0.61000007 1.0879084e-38
0.4069342 -0.19759843 0.61000007 1.0879084e-38
0.41250721 -0.19749101 0.61000007 1.0879084e-38
0.41824186 -0.19750434 0.61000007 1.0879084e-38
0.42288229 -0.19746035 0.61000007 1.0879084e-38
0.42766583 -0.19741368 0.61023766 1.0879084e-38
0.43273848 -0.19756895 0.61000007 1.0879084e-38
0.43732071 -0.19754498 0.61000007 1.0879084e-38
0.44314703 -0.19727322 0.61000007 1.0879084e-38
0.44743246 -0.19765647 0.61000007 1.0879084e-38
0.45230302 -0.19735682 0.61000007 1.0879084e-38
0.45772538 -0.19776919 0.61000007 1.0879084e-38
0.46289811 -0.19770211 0.61000007 1.0879084e-38
0.46768445 -0.19716366 0.61000007 1.0879084e-38
0.47325268 -0.19758065 0.61000007 1.0879084e-38
0.47658214 -0.19694734 0.61000001 1.0879084e-38
0.48099491 -0.19776686 0.61000007 1.0879084e-38
0.48812339 -0.19750589 0.61000007 1.0879084e-38
0.49262339 -0.19753948 0.61000007 1.0879084e-38
0.49806753 -0.19774136 0.61000007 1.0879084e-38
0.50540197 -0.1974761 0.61000001 1.0879084e-38
0.5137639 -0.19737667 0.61000007 1.0879084e-38
0.52224284 -0.19727592 0.61000007 1.0879084e-38
0.52713937 -0.19768475 0.61000007 1.0879084e-38
0.53566623 -0.19803138 0.61000001 1.0879084e-38
0.6979543 -0.19518317 0.61000001 1.097128e-38
0.70210189 -0.19645007 0.61000001 1.097128e-38
0.71299767 -0.1975164 0.61000001 1.097128e-38
0.71553636 -0.19791014 0.61000001 1.097128e-38
0.7206412 -0.19775468 0.61000001 1.097128e-38
0.74938804 -0.19736241 0.61000001 1.097128e-38
0.33211306 -0.19254448 0.61000007 1.0879084e-38
0.33731708 -0.19234751 0.61000007 1.0879084e-38
0.3426885 -0.19244333 0.61000007 1.0879084e-38
0.34742102 -0.19252458 0.61000007 1.0879084e-38
0.35219392 -0.19260706 0.61000007 1.0879084e-38
0.35798064 -0.19256587 0.61000007 1.0879084e-38
0.36240816 -0.19246925 0.61000007 1.0879084e-38
0.36714104 -0.19250253 0.61000007 1.0879084e-38
0.37226391 -0.19239964 0.61000007 1.0879084e-38
0.37785485 -0.19258089 0.61000007 1.0879084e-38
0.38272369 -0.19251698 0.61000007 1.0879084e-38
0.38871297 -0.19224854 0.61000001 1.0879084e-38
0.39271003 -0.19261643 0.61000007 1.0879084e-38
0.39782605 -0.19257343 0.61000007 1.0879084e-38
0.40229771 -0.1925094 0.61000007 1.0879084e-38
0.40724564 -0.19263758 0.61000007 1.0879084e-38
0.41238657 -0.19267306 0.61000007 1.0879084e-38
0.4179388 -0.19231978 0.61000007 1.0879084e-38
0.42304254 -0.1926969 0.61000007 1.0879084e-38
0.42770815 -0.1923838 0.61000007 1.0879084e-38
0.43239418 -0.19276893 0.61000007 1.0879084e-38
0.43771988 -0.19319865 0.61000007 1.0879084e-38
0.44326565 -0.19228496 0.61000007 1.0879084e-38
0.44758442 -0.19253577 0.61000007 1.0879084e-38
0.45247161 -0.19246954 0.61000007 1.0879084e-38
0.45740029 -0.19240203 0.61000007 1.0879084e-38
0.46366453 -0.19255216 0.61000007 1.0879084e-38
0.46785763 -0.19221121 0.61000007 1.0879084e-38
0.4730776 -0.19238363 0.61000007 1.0879084e-38
0.47658214 -0.19223879 0.61000001 1.0879084e-38
0.48112145 -0.19261324 0.61000007 1.0879084e-38
0.48812339 -0.19275123 0.61000007 1.0879084e-38
0.49244303 -0.19225755 0.61000007 1.0879084e-38
0.49824992 -0.19265956 0.61000007 1.0879084e-38
0.50540197 -0.19265245 0.61000001 1.0879084e-38
0.5137639 -0.19251961 0.61000007 1.0879084e-38
0.5222429 -0.19238502 0.61000007 1.0879084e-38
0.52700281 -0.19239938 0.61000007 1.0879084e-38
0.53566623 -0.19308685 0.61000001 1.0879084e-38
0.680803 -0.19068162 0.61000001 1.097128e-38
0.69301069 -0.19441642 0.61000001 1.097128e-38
0.69646853 -0.19271766 0.61000001 1.097128e-38
0.70043933 -0.19276729 0.61000001 1.097128e-38
0.71299767 -0.19280574 0.61000001 1.097128e-38
0.7206412 -0.1930186 0.61000001 1.097128e-38
0.33244184 -0.1875353 0.61000001 1.0879084e-38
0.33775273 -0.18750271 0.61000007 1.0879084e-38
0.34242496 -0.18760948 0.61000007 1.0879084e-38
0.34728134 -0.18746598 0.61000001 1.0879084e-38
0.35244972 -0.18742509 0.61000007 1.0879084e-38
0.35812292 -0.18737066 0.61000007 1.0879084e-38
0.36213431 -0.1875443 0.61000007 1.0879084e-38
0.36745253 -0.18750364 0.61000001 1.0879084e-38
0.37254304 -0.18735567 0.61000007 1.0879084e-38
0.37722263 -0.18752763 0.61000007 1.0879084e-38
0.38272369 -0.18746102 0.61000007 1.0879084e-38
0.38871297 -0.18789095 0.61000001 1.0879084e-38
0.39227679 -0.18753512 0.61000007 1.0879084e-38
0.39804482 -0.18780217 0.61000007 1.0879084e-38
0.40243816 -0.18758973 0.61000007 1.0879084e-38
0.40694827 -0.18750526 0.61000007 1.0879084e-38
0.41225332 -0.1882652 0.61000007 1.0879084e-38
0.41809756 -0.18757725 0.61000007 1.0879084e-38
0.42273661 -0.18749148 0.61000007 1.0879084e-38
0.4278698 -0.18759915 0.61000007 1.0879084e-38
0.4316442 -0.18752284 0.61000007 1.0879084e-38
0.43912935 -0.18771213 0.61000001 1.0879084e-38
0.44326568 -0.1877095 0.61000007 1.0879084e-38
0.44726521 -0.18721685 0.61000007 1.0879084e-38
0.45264038 -0.18758002 0.61000007 1.0879084e-38
0.45755515 -0.18723691 0.61000007 1.0879084e-38
0.46341881 -0.18718584 0.61000007 1.0879084e-38
0.46785763 -0.18753752 0.61000007 1.0879084e-38
0.4729031 -0.18718885 0.61000007 1.0879084e-38
0.47658214 -0.18753023 0.61000001 1.0879084e-38
0.48086837 -0.18716659 0.61000007 1.0879084e-38
0.48812339 -0.18799661 0.61000007 1.0879084e-38
0.4926236 -0.18719955 0.61000007 1.0879084e-38
0.49806753 -0.18761913 0.61000007 1.0879084e-38
0.50540197 -0.18782879 0.61000001 1.0879084e-38
0.5137639 -0.18766256 0.61000007 1.0879084e-38
0.5222429 -0.1874941 0.61000007 1.0879084e-38
0.52700281 -0.18748945 0.61000007 1.0879084e-38
0.53566623 -0.18814234 0.61000001 1.0879084e-38
0.66288781 -0.18610927 0.61000001 1.097128e-38
0.66643286 -0.18664968 0.61000001 1.097128e-38
0.67838705 -0.18755284 0.61000001 1.097128e-38
0.680803 -0.18699883 0.61000001 1.097128e-38
0.69671625 -0.18754081 0.61000007 1.097128e-38
0.70043927 -0.18809843 0.61000001 1.097128e-38
0.7206412 -0.1873353 0.61000001 1.097128e-38
0.33230677 -0.18254869 0.61000007 1.0879084e-38
0.33731708 -0.18265876 0.61000007 1.0879084e-38
0.342563 -0.18249048 0.61000007 1.0879084e-38
0.34761998 -0.18238144 0.61000007 1.0879084e-38
0.35218126 -0.18254742 0.61000007 1.0879084e-38
0.35785127 -0.18246685 0.61000007 1.0879084e-38
0.36240816 -0.18254668 0.61000007 1.0879084e-38
0.36714107 -0.18253586 0.61000007 1.0879084e-38
0.37226391 -0.18238521 0.61000007 1.0879084e-38
0.37785488 -0.18251432 0.61000007 1.0879084e-38
0.38272369 -0.18240507 0.61000007 1.0879084e-38
0.38871297 -0.18280709 0.61000001 1.0879084e-38
0.39308339 -0.18289739 0.61000007 1.0879084e-38
0.3976073 -0.18269803 0.61000007 1.0879084e-38
0.40257844 -0.18266816 0.61000007 1.0879084e-38
0.40708989 -0.18256423 0.61000007 1.0879084e-38
0.41099536 -0.18254328 0.61000007 1.0879084e-38
0.4182418 -0.1825859 0.61000007 1.0879084e-38
0.42288229 -0.18248016 0.61000007 1.0879084e-38
0.42756116 -0.18237285 0.61000007 1.0879084e-38
0.4317604 -0.18258369 0.61000007 1.0879084e-38
0.43912935 -0.18239336 0.61000001 1.0879084e-38
0.44338423 -0.18271916 0.61000007 1.0879084e-38
0.4474324 -0.18234941 0.61000007 1.0879084e-38
0.45247144 -0.18247564 0.61000007 1.0879084e-38
0.45755515 -0.18260436 0.61000007 1.0879084e-38
0.46354166 -0.18210822 0.61000007 1.0879084e-38
0.46803087 -0.18258211 0.61000007 1.0879084e-38
0.47307777 -0.18221286 0.61000007 1.0879084e-38
0.47658214 -0.18282169 0.61000001 1.0879084e-38
0.48099491 -0.18201298 0.61000007 1.0879084e-38
0.48825142 -0.18281087 0.61000007 1.0879084e-38
0.49262354 -0.18242694 0.61000007 1.0879084e-38
0.49806732 -0.18255846 0.61000007 1.0879084e-38
0.50540197 -0.18300515 0.61000001 1.0879084e-38
0.5137639 -0.18280549 0.61000007 1.0879084e-38
0.52224284 -0.18260318 0.61000007 1.0879084e-38
0.52700281 -0.18257953 0.61000007 1.0879084e-38
0.53761119 -0.1826935 0.61000007 1.0879084e-38
0.54151034 -0.18085456 0.61000001 1.0879084e-38
0.64773065 -0.18110272 0.61000001 1.0879084e-38
0.66288781 -0.18247418 0.61000007 1.097128e-38
0.66643286 -0.18300514 0.61000001 1.097128e-38
0.67838699 -0.1829574 0.61000001 1.097128e-38
0.680803 -0.18239532 0.61000001 1.097128e-38
0.69696379 -0.18236133 0.61000001 1.097128e-38
0.70043927 -0.18249582 0.61000001 1.097128e-38
0.7206412 -0.18259919 0.61000001 1.097128e-38
0.72757214 -0.18389677 0.61006898 1.097128e-38
0.33217099 -0.17756422 0.61000001 1.0879084e-38
0.33769029 -0.17757152 0.61000013 1.0879084e-38
0.34270114 -0.17736949 0.61000007 1.0879084e-38
0.3472217 -0.17751317 0.61000007 1.0879084e-38
0.35246268 -0.17782749 0.61000007 1.0879084e-38
0.35812292 -0.17748801 0.61000007 1.0879084e-38
0.36213431 -0.17762427 0.61000007 1.0879084e-38
0.36745256 -0.17753404 0.61000001 1.0879084e-38
0.37385869 -0.17715317 0.61000001 1.0879084e-38
0.37722263 -0.17746699 0.61000007 1.0879084e-38
0.38285902 -0.17757069 0.61000007 1.0879084e-38
0.38871297 -0.17772321 0.61000001 1.0879084e-38
0.3930347 -0.17747222 0.61000007 1.0879084e-38
0.39804485 -0.17754747 0.61000007 1.0879084e-38
0.40228385 -0.17756 0.61000007 1.0879084e-38
0.40723133 -0.1776213 0.61000007 1.0879084e-38
0.41099536 -0.17735557 0.61000007 1.0879084e-38
0.4179388 -0.17740537 0.61000007 1.0879084e-38
0.42304254 -0.17771451 0.61000007 1.0879084e-38
0.42770812 -0.17733933 0.61000007 1.0879084e-38
0.43187666 -0.17764296 0.61000007 1.0879084e-38
0.43912935 -0.17783438 0.61000001 1.0879084e-38
0.44314703 -0.1774482 0.61000007 1.0879084e-38
0.44743246 -0.17775729 0.61000007 1.0879084e-38
0.45230302 -0.17737332 0.61000007 1.0879084e-38
0.45772538 -0.17769186 0.61000007 1.0879084e-38
0.46354166 -0.17745177 0.61000007 1.0879084e-38
0.46785742 -0.17741044 0.61000007 1.0879084e-38
0.47307777 -0.17751831 0.61000007 1.0879084e-38
0.47658214 -0.17811315 0.61000001 1.0879084e-38
0.48099491 -0.1772868 0.61000007 1.0879084e-38
0.48799533 -0.17733355 0.61000007 1.0879084e-38
0.49262354 -0.17765434 0.61000007 1.0879084e-38
0.49788529 -0.17725475 0.61000007 1.0879084e-38
0.50540197 -0.17818148 0.61000001 1.0879084e-38
0.5137639 -0.17794849 0.61000007 1.0879084e-38
0.52224284 -0.17771228 0.61000007 1.0879084e-38
0.52686626 -0.17729709 0.61000007 1.0879084e-38
0.53761119 -0.17774121 0.61000007 1.0879084e-38
0.54151034 -0.17754264 0.61000001 1.0879084e-38
0.6206165 -0.17614305 0.61000001 1.0879084e-38
0.62953269 -0.17659187 0.61000001 1.0879084e-38
0.63403606 -0.17726338 0.61000001 1.0879084e-38
0.64634955 -0.17784217 0.61000001 1.0879084e-38
0.66288781 -0.17702155 0.61000007 1.0879084e-38
0.66643286 -0.17753834 0.61000001 1.097128e-38
0.67838699 -0.17744283 0.61000001 1.097128e-38
0.680803 -0.17779182 0.61000001 1.097128e-38
0.69646865 -0.17781959 0.61000001 1.097128e-38
0.70043927 -0.17689317 0.61000001 1.097128e-38
0.7206412 -0.17786311 0.61000001 1.097128e-38
0.33235878 -0.17259911 0.61000007 1.0879084e-38
0.33756623 -0.17251275 0.61000007 1.0879084e-38
0.34243736 -0.17253949 0.61000007 1.0879084e-38
0.34756011 -0.17242599 0.61000001 1.0879084e-38
0.35372961 -0.1727252 0.61000007 1.0879084e-38
0.35785127 -0.17258672 0.61000007 1.0879084e-38
0.36239502 -0.17238979 0.61000007 1.0879084e-38
0.36714107 -0.17256914 0.61000007 1.0879084e-38
0.37385869 -0.17213853 0.61000001 1.0879084e-38
0.37785485 -0.1724478 0.61000007 1.0879084e-38
0.3825748 -0.172555 0.61000007 1.0879084e-38
0.38871297 -0.17263934 0.61000001 1.0879084e-38
0.39346856 -0.17234099 0.61000007 1.0879084e-38
0.39760736 -0.17244741 0.61000007 1.0879084e-38
0.40259266 -0.17261434 0.61000007 1.0879084e-38
0.4069342 -0.172493 0.61000007 1.0879084e-38
0.41110736 -0.17250481 0.61000007 1.0879084e-38
0.41809756 -0.17266071 0.61000007 1.0879084e-38
0.42273661 -0.1725132 0.61000007 1.0879084e-38
0.4278698 -0.17255251 0.61000007 1.0879084e-38
0.4316442 -0.17242599 0.61000007 1.0879084e-38
0.43912935 -0.1725156 0.61000001 1.0879084e-38
0.44326565 -0.17245787 0.61000007 1.0879084e-38
0.44758442 -0.17263393 0.61000007 1.0879084e-38
0.45247161 -0.17248312 0.61000007 1.0879084e-38
0.45755491 -0.17256646 0.61000007 1.0879084e-38
0.46354166 -0.17279531 0.61000007 1.0879084e-38
0.46768445 -0.17224093 0.61000007 1.0879084e-38
0.47307777 -0.17282373 0.61000007 1.0879084e-38
0.47658211 -0.17261985 0.61000001 1.0879084e-38
0.48099491 -0.17256065 0.61000007 1.0879084e-38
0.48812333 -0.17214781 0.61000007 1.0879084e-38
0.49262354 -0.17288174 0.61000007 1.0879084e-38
0.49806753 -0.17217144 0.61000007 1.0879084e-38
0.50540197 -0.17255391 0.61000001 1.0879084e-38
0.51389754 -0.17264993 0.61000007 1.0879084e-38
0.52224284 -0.17282136 0.61000007 1.0879084e-38
0.52700281 -0.171942 0.61000007 1.0879084e-38
0.53733331 -0.17239226 0.61000007 1.0879084e-38
0.54151034 -0.17257477 0.61000001 1.0879084e-38
0.61400723 -0.17252445 0.61000001 1.0879084e-38
0.61840606 -0.17229533 0.61000001 1.0879084e-38
0.6206165 -0.17262049 0.61000001 1.0879084e-38
0.62953269 -0.17215903 0.61000001 1.0879084e-38
0.63403606 -0.17281552 0.61000001 1.0879084e-38
0.64657968 -0.1728483 0.61000007 1.0879084e-38
0.66288781 -0.17247768 0.61000001 1.0879084e-38
0.66643286 -0.17207153 0.61000001 1.0879084e-38
0.67838699 -0.17192829 0.61000001 1.097128e-38
0.680803 -0.17226763 0.61000001 1.097128e-38
0.69671625 -0.17264013 0.61000007 1.097128e-38
0.70043933 -0.17222434 0.61000001 1.097128e-38
